# This PCD file was generated using the MATLAB® pcwrite function
# from Computer Vision System Toolbox®.
# .PCD v.7 - Point Cloud Data file format
VERSION .7
FIELDS x y z
SIZE 4 4 4
TYPE F F F
COUNT 1 1 1
WIDTH 1634
HEIGHT 1
VIEWPOINT 0 0 0 1 0 0 0
POINTS 1634
DATA ascii
6.336340 11.363638 -2.802618
7.988126 11.336494 -2.827618
5.074792 11.479829 -2.810951
5.112292 11.433163 -2.807618
6.303959 11.466496 -2.810118
4.990626 11.616495 -2.817618
5.028751 11.568995 -2.818868
6.243403 11.564274 -2.812618
4.951181 11.673717 -2.823173
6.163626 11.676496 -2.817618
6.198126 11.633995 -2.817618
4.861876 11.768370 -2.827618
4.905626 11.721495 -2.827618
6.085626 11.771496 -2.817618
6.131626 11.751495 -2.819618
6.110626 11.836495 -2.827618
8.850626 12.216496 -2.779284
8.950625 12.208162 -2.789284
9.030626 12.196495 -2.795118
9.123959 12.194829 -2.804284
9.238958 12.193162 -2.815951
9.330626 12.188995 -2.825118
8.357292 12.288162 -2.737618
8.436876 12.258995 -2.742618
8.533958 12.243162 -2.750951
8.627293 12.233162 -2.759284
8.725626 12.229829 -2.769284
8.795626 12.226496 -2.772618
6.345626 12.416495 -2.747618
6.460626 12.416495 -2.757618
6.547626 12.406496 -2.764618
6.651876 12.401495 -2.775118
6.744626 12.384496 -2.781618
6.849376 12.373995 -2.792618
6.944376 12.370245 -2.801368
7.038126 12.362745 -2.810118
7.133126 12.351496 -2.820118
7.210626 12.346495 -2.827618
8.290626 12.411495 -2.737618
8.337626 12.373495 -2.741618
4.883126 12.516495 -2.785118
4.947292 12.508996 -2.790118
5.041626 12.499495 -2.796618
5.136459 12.488162 -2.805118
5.242292 12.478995 -2.813451
5.341626 12.475495 -2.824618
5.405626 12.466496 -2.827618
6.170626 12.485245 -2.736368
6.240626 12.450495 -2.739618
6.335626 12.435246 -2.746368
6.439376 12.422745 -2.756368
8.157292 12.493162 -2.732618
8.229626 12.441495 -2.734618
3.145626 12.608995 -2.812618
3.237293 12.613162 -2.819284
3.342501 12.609620 -2.825743
3.413126 12.603995 -2.827618
4.260626 12.599495 -2.742618
4.348483 12.579353 -2.747618
4.447292 12.565662 -2.753451
4.544911 12.548638 -2.760475
4.649793 12.536495 -2.766784
4.744626 12.533495 -2.774618
4.824626 12.524495 -2.780618
6.051876 12.603995 -2.737618
6.118959 12.549829 -2.737618
1.750626 12.716496 -2.777618
1.818126 12.713995 -2.777618
1.943626 12.715496 -2.778618
2.040626 12.711494 -2.781993
2.142501 12.701496 -2.781993
2.239912 12.692924 -2.783332
2.337501 12.684621 -2.786368
2.439376 12.669621 -2.786368
2.543751 12.659620 -2.790118
2.644197 12.659352 -2.794046
2.744376 12.652121 -2.796993
2.844912 12.645781 -2.802618
2.938483 12.638638 -2.805475
3.041251 12.633995 -2.811368
3.140626 12.629496 -2.816618
3.240626 12.621495 -2.822618
4.156459 12.697329 -2.748451
4.215626 12.652745 -2.747618
5.865626 12.711495 -2.732618
5.936251 12.666494 -2.732618
6.018126 12.623995 -2.737618
0.872292 12.814829 -2.792618
0.943751 12.804621 -2.787618
1.042054 12.780066 -2.783332
1.139376 12.772745 -2.781368
1.241876 12.763995 -2.778868
1.345626 12.762119 -2.778243
1.442054 12.747924 -2.776903
1.538126 12.741495 -2.777618
1.640626 12.735870 -2.777618
1.742769 12.732924 -2.777618
1.855626 12.726496 -2.778451
1.945626 12.723995 -2.782618
3.771876 12.781495 -2.733868
3.833126 12.776495 -2.737618
3.968126 12.796495 -2.750118
4.039376 12.778996 -2.751993
4.110626 12.734829 -2.750951
5.840626 12.721495 -2.732618
0.559626 12.896496 -2.810618
0.646340 12.865067 -2.803332
0.739911 12.842209 -2.797618
0.819626 12.821495 -2.792618
3.539626 12.899495 -2.737618
3.637054 12.877209 -2.739761
3.731459 12.860662 -2.742618
3.929626 12.832495 -2.751618
0.390626 12.971495 -2.827618
0.449911 12.947209 -2.822618
0.518126 12.921495 -2.817618
3.165626 13.011496 -2.732618
3.257626 13.007496 -2.737618
3.337769 12.971495 -2.736903
3.432769 12.940781 -2.736903
3.545626 12.921495 -2.740118
2.785626 13.106495 -2.732618
2.845626 13.096495 -2.732618
2.985626 13.066496 -2.732618
3.042293 13.048996 -2.733451
3.112292 13.039829 -2.734284
3.220626 13.021496 -2.737618
2.335626 13.206495 -2.732618
2.585626 13.156496 -2.732618
2.643959 13.144829 -2.732618
2.740626 13.136496 -2.732618
1.450626 13.311495 -2.732618
1.665626 13.308163 -2.732618
1.730626 13.304829 -2.734284
1.838626 13.309496 -2.735618
1.931626 13.273495 -2.732618
2.178126 13.241495 -2.732618
1.148126 13.408995 -2.747618
1.320626 13.383995 -2.742618
1.445626 13.389496 -2.744618
1.540626 13.365781 -2.741189
1.625626 13.339828 -2.737618
1.765626 13.326495 -2.737618
1.852293 13.329828 -2.739285
0.768126 13.483995 -2.761368
0.842292 13.491495 -2.761784
0.932292 13.483995 -2.760118
1.039197 13.479352 -2.758332
1.137626 13.457495 -2.755618
1.240626 13.470780 -2.758332
1.350626 13.438496 -2.752618
1.400626 13.431496 -2.752618
0.485626 13.611496 -2.787618
0.546459 13.598995 -2.784284
0.644792 13.577329 -2.778451
0.715626 13.538162 -2.770951
-0.139374 13.673996 -2.811368
-0.075624 13.677746 -2.811368
0.366876 13.672746 -2.798868
0.438626 13.642495 -2.791618
0.545626 13.621495 -2.787618
-0.194374 13.746495 -2.827618
-0.031874 13.760245 -2.822618
0.044626 13.776495 -2.823618
0.138126 13.762329 -2.819284
0.242054 13.745068 -2.813332
0.313126 13.743996 -2.812618
1.550626 14.391495 -2.732618
0.915626 14.456495 -2.742618
1.452292 14.499829 -2.749285
1.525626 14.478995 -2.745118
1.385626 14.596495 -2.762618
1.435626 14.531496 -2.754284
1.505626 14.571495 -2.757618
0.865626 14.666495 -2.772618
1.348959 14.683163 -2.774284
5.575626 14.696495 -2.732618
5.633959 14.694829 -2.734284
-0.114374 14.766495 -2.802618
0.725626 14.806496 -2.792618
0.817292 14.789829 -2.789284
1.068126 14.773995 -2.787618
1.126876 14.767746 -2.786368
1.260626 14.808996 -2.792618
1.323126 14.753996 -2.782618
5.565626 14.738995 -2.732618
0.735626 14.896496 -2.805951
0.885626 14.856495 -2.797618
0.963126 14.873995 -2.802618
1.023959 14.884829 -2.804284
1.163126 14.828995 -2.795118
1.208126 14.821495 -2.792618
5.480626 14.856495 -2.742618
5.553626 14.863495 -2.746618
5.455626 15.016495 -2.757618
0.765626 15.046495 -2.827618
5.460626 15.071495 -2.762618
-12.499374 15.216496 -2.812618
5.545626 15.281496 -2.787618
5.648959 15.263161 -2.794284
22.100626 15.291496 -2.747618
21.980625 15.406496 -2.742618
22.045626 15.351496 -2.742618
5.590626 15.496496 -2.812618
5.750626 15.486496 -2.822618
21.965626 15.478996 -2.742618
21.890625 15.586494 -2.742618
21.925625 15.546495 -2.742618
21.865625 15.686495 -2.742618
21.895626 15.641495 -2.742618
21.845627 15.753996 -2.742618
3.878126 15.898996 -2.782618
3.925626 15.874828 -2.782618
21.833126 15.858995 -2.742618
3.843959 15.964828 -2.787618
3.990626 15.946495 -2.792618
21.803125 15.953995 -2.745118
3.385626 16.116495 -2.792618
3.439626 16.072495 -2.787618
3.647292 16.039829 -2.790951
3.725626 16.045246 -2.793868
21.770626 16.021496 -2.742618
0.830626 16.196495 -2.772618
3.542292 16.138161 -2.799284
0.785626 16.261496 -2.777618
0.810626 16.246496 -2.777618
0.945626 16.289829 -2.782618
1.035626 16.287497 -2.782618
1.139626 16.303495 -2.782618
1.275626 16.268995 -2.780118
1.347626 16.241495 -2.775618
1.420626 16.253996 -2.777618
0.930626 16.321495 -2.787618
1.200626 16.381495 -2.792618
21.055626 18.296495 -2.762618
21.008125 18.383995 -2.762618
20.945625 18.468996 -2.762618
20.855625 18.593996 -2.762618
20.900625 18.531496 -2.762618
20.770626 18.691496 -2.762618
20.805626 18.651495 -2.762618
20.660625 18.801495 -2.757618
20.728125 18.753996 -2.760118
20.558125 18.888996 -2.757618
20.640625 18.851496 -2.757618
20.505625 18.946495 -2.757618
20.260626 19.091496 -2.747618
20.360626 19.063995 -2.752618
20.260626 19.151495 -2.752618
20.145626 19.283995 -2.750118
20.205626 19.236496 -2.752618
20.295626 19.231495 -2.752618
19.865625 19.611496 -2.747618
19.955624 19.581495 -2.750118
19.820625 19.706495 -2.747618
19.900625 19.701496 -2.752618
19.835625 19.776495 -2.752618
19.663124 19.871496 -2.747618
19.760626 19.846495 -2.747618
19.840626 19.841496 -2.752618
19.460625 20.006495 -2.742618
19.535625 19.966496 -2.742618
19.615625 19.926495 -2.747618
19.495625 20.091496 -2.747618
19.428957 20.166496 -2.747618
19.333126 20.253996 -2.742618
19.220625 20.386496 -2.742618
19.145626 20.486496 -2.742618
19.195625 20.436495 -2.742618
19.078125 20.566496 -2.742618
19.048126 20.666496 -2.745118
18.945625 20.778996 -2.745118
19.000626 20.721495 -2.747618
18.775625 20.896496 -2.742618
18.853127 20.836496 -2.742618
18.655624 20.996496 -2.740118
18.725626 20.961494 -2.742618
18.543125 21.096497 -2.737618
18.620625 21.061495 -2.742618
18.480625 21.206495 -2.742618
18.500626 21.161495 -2.737618
18.360626 21.301495 -2.737618
18.410625 21.248995 -2.737618
18.245625 21.401495 -2.737618
18.308125 21.358995 -2.737618
18.168125 21.496496 -2.737618
18.205626 21.436495 -2.737618
17.960625 21.616495 -2.732618
18.043959 21.558163 -2.735951
17.858126 21.693996 -2.732618
17.915625 21.646496 -2.732618
17.735626 21.783995 -2.732618
17.795626 21.736496 -2.732618
17.638960 21.863163 -2.732618
17.575624 21.936495 -2.732618
17.073126 22.453995 -2.732618
17.013960 22.568161 -2.732618
16.945625 22.673996 -2.732618
16.850626 22.788996 -2.732618
16.895626 22.731495 -2.732618
16.765625 22.881495 -2.732618
16.800625 22.846495 -2.732618
16.440626 23.116495 -2.732618
16.390625 23.206495 -2.732618
16.410625 23.151495 -2.732618
16.280626 23.306496 -2.732618
16.343126 23.266495 -2.732618
16.143959 23.379827 -2.732618
16.240625 23.336496 -2.732618
16.060625 23.431496 -2.732618
11.940626 26.386496 -2.732618
12.005627 26.346497 -2.732618
-8.859375 27.401495 -2.757618
-9.049376 27.491495 -2.765118
-9.154375 27.526495 -2.767618
-8.984375 27.536495 -2.767618
-8.859375 27.521496 -2.762618
-9.379374 27.626495 -2.777618
-8.889374 27.686497 -2.767618
-8.864374 27.751495 -2.772618
-8.829374 27.871494 -2.777618
-8.794374 27.966496 -2.777618
-8.756874 28.071495 -2.782618
-8.744373 28.236496 -2.792618
-8.729374 28.321495 -2.792618
-8.704374 28.406496 -2.797618
-8.674374 28.456495 -2.797618
-8.684374 28.596497 -2.802618
-8.679375 28.721497 -2.807618
-8.639374 28.828995 -2.812618
-8.574375 28.871496 -2.812618
-7.349374 28.908997 -2.792618
-7.259374 28.896496 -2.792618
-7.169374 28.893995 -2.787618
-7.069374 28.913996 -2.787618
-6.956874 28.913996 -2.787618
-6.844374 28.903996 -2.782618
-6.671875 28.898994 -2.782618
-6.559374 28.893995 -2.780118
-6.446874 28.891495 -2.777618
-6.364374 28.891497 -2.777618
-6.279374 28.873997 -2.772618
-8.544374 28.946495 -2.817618
-8.461874 28.963997 -2.815118
-8.364374 28.941496 -2.812618
-8.274374 28.926497 -2.810118
-8.161875 28.938995 -2.807618
-8.041874 28.928997 -2.807618
-7.959374 28.936497 -2.807618
-7.874374 28.948997 -2.802618
-7.764374 28.951496 -2.802618
-7.651874 28.966496 -2.802618
-7.564374 28.956495 -2.797618
-7.471874 28.936497 -2.797618
-6.764374 28.926497 -2.782618
-6.219374 28.936497 -2.777618
-6.184374 29.006496 -2.777618
-6.134374 29.026495 -2.777618
-6.066874 29.056496 -2.780118
-6.014374 29.151495 -2.782618
-5.989374 29.241495 -2.787618
-5.969374 29.356495 -2.792618
-5.954374 29.471497 -2.797618
-5.939374 29.591496 -2.802618
-5.914374 29.706495 -2.807618
-5.894374 29.811497 -2.812618
-5.869374 29.926497 -2.817618
-5.849374 30.036495 -2.817618
-5.834374 30.161495 -2.827618
-5.799374 30.256496 -2.827618
-0.789374 30.596497 -2.802618
-0.909374 30.696495 -2.807618
-0.849374 30.696495 -2.807618
-1.536874 30.801497 -2.812618
-1.454374 30.801497 -2.812618
-1.374374 30.791496 -2.812618
-1.261874 30.763996 -2.810118
-1.156874 30.773994 -2.812618
-1.044374 30.748997 -2.807618
-0.964374 30.741495 -2.807618
-2.471874 30.886497 -2.822618
-2.359374 30.868996 -2.822618
-2.249374 30.886496 -2.822618
-2.141874 30.858995 -2.820118
-2.064374 30.901495 -2.822618
-1.976874 30.871496 -2.817618
-1.866874 30.863995 -2.817618
-1.756874 30.853996 -2.817618
-1.644374 30.823996 -2.817618
-2.624374 30.966496 -2.827618
-2.559374 30.926497 -2.827618
-15.519375 50.296497 -2.772618
-15.414375 50.316494 -2.772618
-15.299376 50.311497 -2.772618
-15.199375 50.311497 -2.772618
-14.849375 50.276497 -2.767618
-14.749374 50.296497 -2.767618
-14.644375 50.306496 -2.767618
-14.204374 50.311497 -2.762618
-15.904375 50.406494 -2.782618
-15.779375 50.376495 -2.777618
-15.654375 50.346497 -2.777618
-15.099375 50.346497 -2.772618
-14.979374 50.326496 -2.772618
-14.539373 50.341496 -2.767618
-14.419374 50.326496 -2.767618
-14.324375 50.341496 -2.767618
-14.109375 50.356495 -2.762618
-14.009375 50.381496 -2.762618
-13.904375 50.401497 -2.762618
-13.474375 50.416496 -2.762618
-13.364374 50.406494 -2.757618
-13.244373 50.381496 -2.757618
-13.144375 50.376495 -2.757618
-16.829374 50.466496 -2.787618
-16.724375 50.496494 -2.787618
-16.144375 50.466496 -2.782618
-16.034374 50.466496 -2.782618
-13.756874 50.443996 -2.762618
-13.599375 50.451496 -2.762618
-17.229374 50.601498 -2.797618
-17.094376 50.551495 -2.792618
-16.984375 50.571495 -2.792618
-16.634375 50.536495 -2.787618
-16.549376 50.606495 -2.792618
-16.409374 50.571495 -2.787618
-16.294374 50.556496 -2.787618
-8.814375 -12.723505 -2.727618
-8.734375 -12.678505 -2.727618
-8.669374 -12.653503 -2.722618
-8.564375 -12.611004 -2.720118
-8.454374 -12.553505 -2.717618
-8.359375 -12.528503 -2.712618
-8.254374 -12.473505 -2.707618
-8.156874 -12.441006 -2.705118
-7.664374 -12.238504 -2.687618
-7.571874 -12.206005 -2.682618
-7.449375 -12.163506 -2.677618
-7.334375 -12.133503 -2.675118
-7.249374 -12.118504 -2.672618
-7.161874 -12.096004 -2.670118
-9.954374 -12.031839 -2.727618
-7.044374 -12.048504 -2.667618
-6.934373 -12.036003 -2.662618
-6.849374 -12.018505 -2.662618
-6.789374 -11.993504 -2.657618
-5.519374 -11.983503 -2.637618
-6.734374 -11.968504 -2.657618
-6.649374 -11.953505 -2.655118
-5.624374 -11.948505 -2.637618
-5.559374 -11.968504 -2.637618
-5.459374 -11.948503 -2.632618
-5.379374 -11.928505 -2.632618
-5.294374 -11.893505 -2.632618
-5.644374 -11.803505 -2.632618
-9.899374 -11.743504 -2.712618
-7.544374 -11.373505 -2.647618
-7.464374 -11.363504 -2.647618
-2.744374 -7.203505 -2.727618
-2.699374 -7.183505 -2.727618
-2.651874 -7.176005 -2.727618
-2.559374 -7.156838 -2.722618
-2.451041 -7.125171 -2.717618
-2.346041 -7.106839 -2.715951
-2.274374 -7.088504 -2.712618
-2.234374 -7.073505 -2.712618
-2.169374 -7.071838 -2.710951
-2.066041 -7.061838 -2.707618
-1.959374 -7.025171 -2.704284
-1.859374 -7.016839 -2.702618
-1.759374 -7.005172 -2.699284
-1.661041 -7.011837 -2.697618
-1.566041 -7.023506 -2.697618
-1.467707 -7.023506 -2.697618
-1.369374 -7.020172 -2.697618
-1.272708 -7.021839 -2.695951
-1.159374 -7.018504 -2.692618
-1.046041 -7.018506 -2.692618
-0.951041 -7.026838 -2.692618
-0.854374 -7.025171 -2.690951
-0.757708 -7.011837 -2.687618
-0.659374 -7.000172 -2.687618
-0.562708 -6.996838 -2.685951
-0.464374 -6.971838 -2.682618
-0.354374 -6.966004 -2.682618
-0.241041 -6.950172 -2.679284
-0.146041 -6.951839 -2.677618
-0.051041 -6.936838 -2.677618
0.043959 -6.936838 -2.677618
0.138959 -6.940171 -2.677618
0.232292 -6.930171 -2.675951
0.344376 -6.908505 -2.672618
0.455626 -6.870172 -2.670951
0.548959 -6.871838 -2.670951
0.642292 -6.868504 -2.669284
0.735626 -6.858505 -2.667618
0.844376 -6.862255 -2.667618
0.952292 -6.843503 -2.667618
1.045626 -6.825172 -2.667618
1.138959 -6.805171 -2.662618
1.200626 -6.788505 -2.662618
1.248126 -6.778505 -2.662618
1.340626 -6.739754 -2.660118
1.445626 -6.701837 -2.657618
1.510626 -6.683505 -2.657618
1.550626 -6.671004 -2.657618
1.645626 -6.658504 -2.653868
1.750626 -6.626838 -2.652618
1.840626 -6.600171 -2.652618
1.905626 -6.583504 -2.652618
1.962292 -6.565172 -2.647618
2.055626 -6.551838 -2.647618
2.142292 -6.518505 -2.647618
2.215626 -6.486004 -2.642618
2.275626 -6.468504 -2.642618
2.347292 -6.430171 -2.642618
2.437293 -6.406838 -2.642618
2.495626 -6.383504 -2.637618
2.553959 -6.363504 -2.637618
2.640626 -6.321838 -2.637618
2.710626 -6.293505 -2.635118
2.770626 -6.276005 -2.632618
2.843959 -6.261838 -2.632618
2.945626 -6.227254 -2.632618
3.048959 -6.213505 -2.632618
3.138959 -6.193505 -2.632618
3.195626 -6.173504 -2.632618
-1.154374 -3.683505 -2.717618
-1.084374 -3.683505 -2.717618
-0.959374 -3.696505 -2.717618
-0.851041 -3.690171 -2.714284
-0.746874 -3.684754 -2.712618
-0.646874 -3.688505 -2.712618
-0.556041 -3.686838 -2.710951
-0.439374 -3.686838 -2.707618
-0.389374 -3.683505 -2.707618
-0.256874 -3.683505 -2.707618
-0.199374 -3.693505 -2.707618
-1.836874 -3.613505 -2.727618
-1.763124 -3.627255 -2.727618
-1.664374 -3.636005 -2.727618
-1.564374 -3.647255 -2.726368
-1.463124 -3.649755 -2.722618
-1.365624 -3.661005 -2.722618
-1.266874 -3.664755 -2.721368
-1.171041 -3.671837 -2.719284
-1.062708 -3.675171 -2.717618
-0.834374 -3.678504 -2.712618
-0.646874 -3.676005 -2.712618
-0.534374 -3.678504 -2.707618
-0.484374 -3.678504 -2.707618
-0.339374 -3.676838 -2.707618
-0.254374 -3.676005 -2.705118
-0.144374 -3.666837 -2.702618
-0.059374 -3.662255 -2.702618
0.038126 -3.654755 -2.697618
0.136876 -3.648505 -2.697618
0.233126 -3.647254 -2.697618
0.343626 -3.633505 -2.694618
0.451876 -3.612256 -2.692618
0.548126 -3.598505 -2.690118
0.643126 -3.606005 -2.690118
0.738126 -3.597254 -2.687618
0.844626 -3.600504 -2.687618
0.951876 -3.611004 -2.688868
1.046876 -3.619754 -2.691368
1.141876 -3.624754 -2.692618
1.236876 -3.621005 -2.691368
1.344626 -3.601505 -2.687618
1.450626 -3.593504 -2.687618
1.523126 -3.591004 -2.687618
1.568126 -3.576005 -2.687618
1.639376 -3.568505 -2.687618
1.746626 -3.544505 -2.684618
1.851876 -3.513505 -2.682618
1.932292 -3.493505 -2.682618
1.980626 -3.473505 -2.677618
2.035626 -3.459754 -2.677618
2.139626 -3.425505 -2.677618
2.241876 -3.392254 -2.672618
2.300626 -3.383504 -2.672618
2.355626 -3.356004 -2.672618
2.446876 -3.329754 -2.670118
2.523959 -3.295171 -2.667618
2.615626 -3.283505 -2.667618
2.570626 -3.273505 -2.667618
2.643126 -3.251005 -2.666368
2.747626 -3.208505 -2.662618
2.846876 -3.169755 -2.661368
2.945626 -3.128504 -2.657618
3.030626 -3.095171 -2.657618
3.075626 -3.078505 -2.657618
3.139626 -3.040505 -2.652618
3.234376 -2.996005 -2.652618
3.285626 -2.968504 -2.647618
3.343126 -2.953505 -2.647618
3.438626 -2.911505 -2.647618
3.500626 -2.883504 -2.647618
3.555626 -2.866004 -2.647618
3.640626 -2.829754 -2.642618
3.726876 -2.799755 -2.642618
3.780626 -2.778505 -2.642618
3.843626 -2.754506 -2.642618
3.925626 -2.705171 -2.640951
3.975626 -2.673504 -2.637618
4.043626 -2.631505 -2.637618
4.115626 -2.591004 -2.632618
4.163959 -2.561838 -2.632618
4.234376 -2.519755 -2.632618
-0.754374 -1.492506 -2.717618
-0.655374 -1.499506 -2.717618
-0.556374 -1.505504 -2.716618
-0.459374 -1.512504 -2.712618
-0.360374 -1.513505 -2.712618
-0.255208 -1.526005 -2.712618
-0.147374 -1.527505 -2.709618
-0.050374 -1.529505 -2.708618
0.048626 -1.519505 -2.705618
0.146626 -1.513505 -2.702618
0.243626 -1.511504 -2.702618
0.340626 -1.508505 -2.700618
0.436626 -1.506504 -2.697618
0.543126 -1.500171 -2.697618
0.659376 -1.489755 -2.693868
0.744626 -1.487505 -2.692618
0.840626 -1.485506 -2.692618
0.954626 -1.487505 -2.692618
1.049626 -1.493505 -2.692618
1.144626 -1.503504 -2.692618
1.239626 -1.500505 -2.692618
1.339376 -1.491005 -2.692618
1.410626 -1.483505 -2.692618
-1.355374 -1.391505 -2.726618
-1.258374 -1.408504 -2.722618
-1.163374 -1.430505 -2.722618
-1.058541 -1.457671 -2.722618
-0.949374 -1.467504 -2.722618
-0.848374 -1.473505 -2.719618
0.610626 -1.473505 -2.692618
0.895626 -1.478505 -2.692618
1.315626 -1.478505 -2.692618
1.445626 -1.476504 -2.692618
1.542626 -1.459505 -2.688618
1.638626 -1.443506 -2.687618
1.740626 -1.422672 -2.687618
1.844626 -1.406504 -2.687618
1.928126 -1.389754 -2.685118
-1.760374 -1.294505 -2.727618
-1.636874 -1.331006 -2.727618
-1.552374 -1.357505 -2.727618
-1.452374 -1.372505 -2.727618
1.983126 -1.376005 -2.682618
2.048626 -1.356505 -2.682618
2.139626 -1.334506 -2.680618
2.240626 -1.305171 -2.678451
2.305626 -1.288505 -2.677618
-1.848124 -1.262255 -2.727618
2.350626 -1.272254 -2.677618
2.441459 -1.246838 -2.675951
2.539626 -1.208504 -2.672618
2.595626 -1.188505 -2.672618
2.644626 -1.165504 -2.669618
2.740626 -1.119339 -2.667618
2.820626 -1.090171 -2.664284
2.872293 -1.063505 -2.662618
2.948959 -1.030171 -2.661784
3.035626 -0.996005 -2.658868
3.080626 -0.978505 -2.657618
3.138126 -0.951005 -2.657618
3.241459 -0.913505 -2.656784
3.310626 -0.888505 -2.657618
3.361876 -0.867255 -2.652618
3.443626 -0.851505 -2.655618
3.541459 -0.826005 -2.655118
3.642626 -0.812504 -2.657618
3.712292 -0.790171 -2.657618
3.762292 -0.766838 -2.657618
3.838959 -0.735171 -2.656784
3.930626 -0.693505 -2.654618
3.980626 -0.663505 -2.652618
4.039793 -0.647671 -2.653451
4.130626 -0.599504 -2.652618
4.175626 -0.563505 -2.652618
4.238126 -0.547671 -2.651784
4.338126 -0.504338 -2.652618
4.443483 -0.450648 -2.650475
4.530626 -0.401005 -2.647618
4.575626 -0.371005 -2.647618
4.642292 -0.333505 -2.647618
4.712293 -0.293505 -2.647618
4.762292 -0.270171 -2.647618
4.839911 -0.223505 -2.647618
4.905626 -0.193505 -2.647618
4.950625 -0.161505 -2.647618
5.034792 -0.104338 -2.643451
-0.509374 0.011495 -2.712618
-0.455374 0.009496 -2.708618
-0.352708 0.003162 -2.707618
-0.257707 -0.007672 -2.707618
-0.161874 -0.019339 -2.705118
-0.057231 -0.029933 -2.702618
0.048126 -0.036838 -2.702618
0.143126 -0.043505 -2.702618
0.238959 -0.047671 -2.700951
0.343483 -0.047791 -2.697618
0.448126 -0.043505 -2.697618
0.544792 -0.046005 -2.695118
0.639792 -0.050171 -2.693451
0.742769 -0.050647 -2.692618
0.845626 -0.049338 -2.692618
0.941459 -0.049338 -2.692618
1.043483 -0.064219 -2.692618
1.145626 -0.066838 -2.692618
1.241459 -0.059338 -2.692618
1.344197 -0.050647 -2.692618
1.447292 -0.040171 -2.691784
1.541459 -0.036839 -2.691784
1.644197 -0.033505 -2.692618
1.744792 -0.001004 -2.687618
1.838959 0.006495 -2.687618
1.910626 0.013162 -2.687618
5.090626 -0.078505 -2.642618
5.138125 -0.033504 -2.642618
5.200626 0.003995 -2.642618
-0.957708 0.113996 -2.713451
-0.854374 0.090781 -2.712618
-0.752708 0.062328 -2.712618
-0.657707 0.045663 -2.712618
-0.561041 0.029829 -2.712618
-0.424374 0.021495 -2.707618
1.963126 0.023995 -2.687618
2.042292 0.043162 -2.686785
2.140626 0.066495 -2.683332
2.242292 0.089828 -2.682618
2.330626 0.105246 -2.682618
5.255626 0.038495 -2.642618
5.342292 0.083996 -2.642618
5.408125 0.113995 -2.642618
-1.319374 0.203995 -2.717618
-1.253541 0.199829 -2.717618
-1.162708 0.166496 -2.717618
-1.060088 0.136495 -2.716903
2.355626 0.123162 -2.682618
2.446340 0.141495 -2.681189
2.543126 0.172328 -2.677618
2.641340 0.200781 -2.677618
5.454376 0.143996 -2.642618
5.522626 0.190495 -2.642618
-1.624374 0.296495 -2.722618
-1.551874 0.284829 -2.720118
-1.456041 0.256495 -2.717618
-1.370374 0.233496 -2.717618
2.744197 0.240781 -2.675475
2.847054 0.278638 -2.672618
2.920626 0.304829 -2.672618
5.573125 0.228995 -2.642618
5.627293 0.275662 -2.642618
-1.749374 0.397328 -2.717618
-1.677374 0.338495 -2.719618
2.971876 0.327746 -2.671368
3.044793 0.353162 -2.670951
3.138483 0.390781 -2.667618
3.203126 0.416495 -2.667618
5.680625 0.326495 -2.640118
5.738959 0.368995 -2.638451
5.803126 0.403996 -2.642618
-2.031041 0.513162 -2.717618
-1.957708 0.488996 -2.717618
-1.855088 0.454353 -2.715475
-1.794374 0.431495 -2.712618
3.255626 0.432496 -2.667618
3.342769 0.461495 -2.667618
3.445626 0.493638 -2.667618
5.854792 0.453996 -2.637618
5.920626 0.501495 -2.637618
-2.228124 0.600245 -2.721368
-2.152708 0.570662 -2.718451
-2.074374 0.536495 -2.717618
3.546340 0.533638 -2.667618
3.643126 0.563162 -2.667618
3.729792 0.594829 -2.667618
5.967292 0.533162 -2.637618
6.039197 0.585067 -2.638332
-2.441375 0.700495 -2.722618
-2.360208 0.661495 -2.722618
-2.285624 0.627745 -2.722618
3.783126 0.623995 -2.667618
3.849197 0.649353 -2.667618
3.943959 0.684829 -2.667618
4.000626 0.706495 -2.667618
6.143126 0.670870 -2.637618
-2.647374 0.798495 -2.726618
-2.559374 0.756495 -2.722618
-2.489374 0.731495 -2.722618
4.056459 0.734829 -2.667618
4.146340 0.780781 -2.667618
4.208126 0.813995 -2.667618
6.247293 0.742329 -2.639284
6.319376 0.797745 -2.641368
9.051876 0.797745 -2.632618
-10.654375 0.876495 -2.632618
-2.829374 0.893996 -2.727618
-2.752231 0.848639 -2.727618
-2.694374 0.821496 -2.727618
0.765626 0.916495 -2.702618
0.880626 0.916495 -2.702618
0.945626 0.911496 -2.702618
1.043751 0.895870 -2.703868
1.147054 0.891495 -2.703332
1.242769 0.892924 -2.704046
1.339197 0.897924 -2.703332
1.441876 0.900870 -2.703243
1.544197 0.900781 -2.704046
1.640626 0.906495 -2.704761
1.708959 0.913162 -2.704284
4.256626 0.834496 -2.667618
4.346251 0.882120 -2.667618
4.405626 0.911495 -2.667618
6.375626 0.828162 -2.642618
6.450626 0.880066 -2.642618
6.510626 0.916495 -2.642618
9.106876 0.868996 -2.632618
-2.952231 0.962210 -2.727618
-2.879375 0.923162 -2.727618
-0.331874 0.993995 -2.720118
-0.244374 1.002328 -2.713451
-0.156517 0.985066 -2.712618
-0.053749 0.969620 -2.712618
0.048483 0.957923 -2.712618
0.145626 0.952209 -2.709761
0.243483 0.945781 -2.707618
0.339912 0.945067 -2.705475
0.443751 0.943370 -2.702618
0.546340 0.939353 -2.702618
0.642054 0.933639 -2.702618
0.741340 0.930067 -2.701189
0.833626 0.923496 -2.702618
0.935626 0.923995 -2.700118
1.762626 0.925495 -2.702618
1.844197 0.937210 -2.702618
1.939197 0.952209 -2.702618
2.040001 0.970245 -2.701993
2.141340 0.985066 -2.702618
2.232293 1.010662 -2.700118
2.300626 1.016495 -2.702618
4.454792 0.939829 -2.667618
4.543483 0.985781 -2.667618
6.553626 0.953496 -2.642618
6.607293 1.001495 -2.642618
9.153126 0.960245 -2.632618
-3.054374 1.035245 -2.727618
-0.748541 1.108995 -2.720951
-0.658660 1.094353 -2.717618
-0.558749 1.060246 -2.718243
-0.457231 1.039352 -2.717618
-0.373374 1.025496 -2.715618
-0.291874 1.043995 -2.710118
2.268126 1.023995 -2.697618
2.347292 1.035662 -2.698451
2.440001 1.060871 -2.697618
2.543751 1.093370 -2.697618
2.618126 1.111495 -2.697618
4.590626 1.026495 -2.667618
4.646340 1.056496 -2.666903
4.719376 1.097745 -2.667618
6.661876 1.036495 -2.645118
6.723626 1.088495 -2.647618
-12.254374 1.168995 -2.725118
-12.069374 1.196496 -2.712618
-1.047374 1.209496 -2.721618
-0.958124 1.182745 -2.720118
-0.852499 1.147746 -2.718243
-0.789374 1.131495 -2.717618
2.658126 1.135662 -2.693451
2.748126 1.172121 -2.692618
2.823126 1.205245 -2.690118
4.770626 1.131495 -2.667618
4.845626 1.172924 -2.667618
4.905626 1.211495 -2.667618
6.773126 1.131495 -2.647618
6.841340 1.176496 -2.647618
6.900626 1.216496 -2.647618
-12.256874 1.273995 -2.722618
-11.866875 1.236495 -2.697618
-11.569374 1.296495 -2.675118
-11.476873 1.271495 -2.670118
-11.314375 1.291495 -2.657618
-3.289374 1.221495 -2.727618
-1.249374 1.295067 -2.721189
-1.155624 1.252120 -2.721993
-1.081874 1.226495 -2.722618
2.874376 1.225245 -2.687618
2.950626 1.249620 -2.688243
3.045626 1.285781 -2.687618
3.095626 1.311495 -2.687618
4.957293 1.241495 -2.667618
5.035625 1.289829 -2.667618
6.953959 1.256495 -2.651784
7.020626 1.304829 -2.652618
-12.219374 1.381495 -2.717618
-1.546041 1.399829 -2.725118
-1.466874 1.363162 -2.725118
-1.359374 1.341496 -2.721368
-1.299374 1.321496 -2.722618
3.144912 1.329352 -2.687618
3.238126 1.365870 -2.686368
3.325626 1.400661 -2.685118
5.083126 1.331495 -2.667618
5.146251 1.374621 -2.666993
5.200626 1.416495 -2.667618
7.068126 1.347745 -2.652618
7.136625 1.396495 -2.653618
-12.214375 1.468996 -2.712618
-12.144375 1.446496 -2.707618
-1.719374 1.508162 -2.722618
-1.648819 1.462051 -2.723173
-1.594374 1.421495 -2.727618
3.373126 1.426496 -2.682618
3.440626 1.440870 -2.686993
3.540070 1.497051 -2.683173
3.613126 1.516495 -2.687618
5.248126 1.443995 -2.667618
5.324792 1.496495 -2.667618
7.180626 1.431495 -2.657618
7.237054 1.478638 -2.657618
7.300626 1.516495 -2.657618
-12.144375 1.586495 -2.702618
-1.929374 1.602746 -2.727618
-1.857499 1.561495 -2.725743
-1.768374 1.534495 -2.722618
0.478126 1.616495 -2.725118
0.538126 1.616495 -2.722618
0.657292 1.606496 -2.722618
0.746876 1.603995 -2.721368
0.843751 1.607120 -2.719493
0.941251 1.604620 -2.718868
1.043959 1.598718 -2.719284
1.146876 1.594620 -2.719493
1.244376 1.595245 -2.720743
1.341876 1.600245 -2.719493
1.438126 1.600870 -2.720743
1.541737 1.599273 -2.721507
1.644376 1.604620 -2.722618
1.739376 1.611495 -2.722618
3.654626 1.539495 -2.684618
3.743404 1.573162 -2.686507
3.820626 1.611495 -2.685118
5.380626 1.526495 -2.667618
5.440626 1.575245 -2.667618
7.343959 1.568162 -2.657618
7.395626 1.606495 -2.662618
20.540625 1.591496 -2.632618
20.680626 1.596495 -2.642618
-12.236874 1.651495 -2.707618
-12.159374 1.651495 -2.705118
-2.111874 1.706496 -2.725118
-2.048124 1.677120 -2.724493
-1.975624 1.632745 -2.725118
-0.146874 1.710245 -2.727618
-0.051874 1.695245 -2.727618
0.042501 1.672121 -2.727618
0.145626 1.660384 -2.727062
0.248751 1.648371 -2.726368
0.346876 1.640871 -2.723868
0.431459 1.633995 -2.722618
0.541459 1.626495 -2.722618
0.615626 1.623162 -2.720951
1.743126 1.625246 -2.718868
1.843404 1.628717 -2.720951
1.945626 1.647120 -2.720118
2.042501 1.667120 -2.718243
2.141737 1.690385 -2.717618
2.238126 1.707746 -2.717618
3.871876 1.631495 -2.686368
3.942501 1.668995 -2.687618
4.014376 1.703995 -2.686368
5.539376 1.648995 -2.667618
5.611876 1.705245 -2.668868
7.443959 1.651495 -2.661784
7.508959 1.704828 -2.662618
20.748125 1.651495 -2.642618
20.895626 1.681495 -2.647618
-12.364374 1.811495 -2.712618
-12.249374 1.776495 -2.705951
-12.154375 1.791495 -2.702618
-2.254374 1.792746 -2.727618
-2.167232 1.739353 -2.727618
-0.444374 1.793995 -2.727618
-0.319374 1.756495 -2.727618
-0.189374 1.726495 -2.727618
2.246876 1.722745 -2.715118
2.342292 1.736495 -2.717062
2.444515 1.774273 -2.713729
2.543126 1.805245 -2.712618
2.610626 1.816495 -2.712618
4.061876 1.730245 -2.686368
4.138959 1.773717 -2.687618
4.210626 1.811496 -2.687618
5.666625 1.747496 -2.667618
5.727626 1.796495 -2.667618
7.566626 1.753496 -2.662618
7.623959 1.803162 -2.667618
21.775625 1.786495 -2.687618
21.880625 1.811495 -2.692618
22.060625 1.816495 -2.702618
-12.579374 1.836495 -2.727618
-12.446875 1.833995 -2.720118
-2.419374 1.898995 -2.727618
-2.352499 1.848996 -2.727618
2.590626 1.831495 -2.712618
2.652769 1.840781 -2.711904
2.742292 1.877051 -2.709840
2.829626 1.904496 -2.709618
4.263126 1.842329 -2.686785
4.343125 1.888995 -2.687618
5.772292 1.839828 -2.667618
5.837769 1.883638 -2.671903
7.667293 1.836495 -2.667618
7.735626 1.889829 -2.669284
22.235626 1.821496 -2.707618
22.425625 1.826495 -2.717618
22.565626 1.841496 -2.722618
22.685625 1.861495 -2.727618
22.730625 1.896495 -2.727618
-2.559999 1.992745 -2.727618
-2.478541 1.936495 -2.727618
2.860626 1.928996 -2.707618
2.944515 1.954273 -2.707618
3.039376 1.995245 -2.706993
3.100626 2.016495 -2.707618
4.442293 1.947607 -2.687618
4.532292 1.994829 -2.687618
5.885626 1.921495 -2.672618
5.943750 1.961495 -2.672618
5.995626 2.006495 -2.672618
7.783125 1.946496 -2.670118
7.826876 1.982745 -2.672618
-2.632374 2.046495 -2.727618
3.070626 2.021495 -2.702618
3.147501 2.041496 -2.705743
3.240626 2.082606 -2.705395
3.308126 2.108995 -2.705118
4.575626 2.028996 -2.687618
4.642292 2.062606 -2.690396
4.712293 2.103162 -2.692618
6.041251 2.061496 -2.672618
6.113959 2.108162 -2.672618
7.863126 2.026495 -2.672618
7.927292 2.071495 -2.675118
-2.746874 2.128995 -2.727618
3.351251 2.136496 -2.704493
3.444376 2.172745 -2.704493
3.518959 2.206495 -2.705118
4.761459 2.138162 -2.692618
4.830626 2.183995 -2.692618
6.161459 2.160662 -2.672618
6.208126 2.198995 -2.675118
7.983126 2.123995 -2.677618
8.034792 2.178995 -2.677618
3.570626 2.223162 -2.705951
3.641626 2.256495 -2.707118
3.735626 2.299353 -2.707618
4.875626 2.224829 -2.690951
4.941737 2.271495 -2.692618
5.008126 2.303996 -2.692618
6.256340 2.252209 -2.675475
6.317292 2.303163 -2.677618
8.085626 2.221495 -2.677618
8.140625 2.277924 -2.681903
9.985626 2.256495 -2.632618
10.045626 2.287745 -2.633868
10.110626 2.316495 -2.637618
13.715626 2.286496 -2.632618
13.825626 2.291495 -2.642618
3.783126 2.323995 -2.707618
3.846626 2.356995 -2.708618
3.932626 2.397496 -2.709618
5.060000 2.352120 -2.693243
5.124376 2.400245 -2.692618
6.361876 2.335246 -2.677618
6.424792 2.384829 -2.680118
8.190626 2.331495 -2.682618
8.240626 2.380662 -2.684284
10.156876 2.355245 -2.640118
10.208126 2.406496 -2.642618
13.839376 2.366495 -2.638868
14.290627 2.411495 -2.667618
3.964376 2.430245 -2.707618
4.045070 2.459273 -2.710951
4.114376 2.495245 -2.712618
5.166876 2.432745 -2.693868
5.241182 2.483162 -2.697618
6.465626 2.431495 -2.680118
6.523483 2.474352 -2.682618
8.280626 2.431495 -2.682618
8.336458 2.473995 -2.687618
10.255627 2.458995 -2.643868
10.305626 2.508996 -2.647618
13.933126 2.428996 -2.645118
14.060625 2.431495 -2.652618
14.160625 2.431495 -2.657618
14.350626 2.443995 -2.670118
14.458960 2.488162 -2.677618
4.159792 2.535662 -2.710951
4.234376 2.575245 -2.712618
4.308125 2.616495 -2.715118
5.340126 2.566995 -2.697618
5.395626 2.616495 -2.697618
6.573125 2.523995 -2.682618
6.634376 2.575245 -2.684493
8.390626 2.521495 -2.687618
8.444912 2.575781 -2.691903
10.361876 2.557745 -2.647618
10.410625 2.611495 -2.650118
14.536875 2.578995 -2.680118
4.278126 2.621495 -2.710118
4.356251 2.655245 -2.713243
4.431459 2.696496 -2.715951
5.448959 2.659274 -2.697618
5.515625 2.698995 -2.700118
6.690626 2.621495 -2.687618
6.743751 2.670245 -2.688243
6.800626 2.716496 -2.692618
8.541459 2.659828 -2.696784
8.595626 2.706495 -2.697618
10.465626 2.646495 -2.654284
10.547293 2.686496 -2.659284
14.640625 2.643996 -2.685118
14.720625 2.686495 -2.690118
4.473959 2.729829 -2.715951
4.538626 2.773995 -2.716118
5.551250 2.760870 -2.697618
5.600626 2.806495 -2.700118
6.849912 2.757210 -2.692618
6.900626 2.806495 -2.692618
8.615625 2.762496 -2.697618
10.585627 2.721495 -2.662618
10.638626 2.772496 -2.663618
14.765625 2.721495 -2.692618
14.833960 2.764829 -2.695951
14.900625 2.811495 -2.702618
4.585626 2.821496 -2.712618
4.640626 2.849273 -2.717062
4.711626 2.899495 -2.718618
5.653403 2.859828 -2.698729
5.710626 2.911496 -2.702618
6.947769 2.861495 -2.694046
8.652292 2.861495 -2.696784
8.700626 2.911495 -2.697618
10.685625 2.826495 -2.667618
10.744375 2.862745 -2.670118
10.795626 2.901495 -2.672618
14.955626 2.861495 -2.702618
15.015625 2.906496 -2.707618
4.763483 2.945782 -2.718332
4.837054 2.992924 -2.721189
5.750626 2.968370 -2.700118
5.795626 2.971495 -2.702618
6.970626 2.933996 -2.692618
7.013125 2.980662 -2.693451
8.743626 2.952495 -2.700618
8.815625 3.001495 -2.704284
10.849625 2.957495 -2.674618
10.900625 3.011495 -2.677618
15.058960 2.966495 -2.707618
15.110626 3.016495 -2.707618
4.876876 3.051496 -2.718868
4.922293 3.084829 -2.719284
5.836626 3.070995 -2.697618
7.070626 3.038996 -2.696368
7.121625 3.089495 -2.697618
8.866876 3.052746 -2.707618
8.905626 3.093995 -2.707618
10.951876 3.055245 -2.680118
11.005625 3.108995 -2.682618
15.158125 3.053995 -2.712618
15.200626 3.091495 -2.712618
4.965626 3.146495 -2.717618
5.004375 3.193995 -2.715118
5.888126 3.131495 -2.697618
5.938751 3.181495 -2.700743
7.165626 3.136495 -2.697618
7.210626 3.183495 -2.701618
8.950626 3.149496 -2.711618
9.018959 3.203162 -2.715951
11.061876 3.165245 -2.687618
11.115625 3.206495 -2.687618
15.252293 3.146495 -2.717618
15.310625 3.196495 -2.722618
5.058751 3.242120 -2.716368
5.124793 3.294829 -2.717618
5.980626 3.226495 -2.702618
6.035625 3.270384 -2.703173
7.263626 3.243495 -2.702618
7.318126 3.296495 -2.705118
9.070625 3.241495 -2.719284
9.146626 3.292495 -2.724618
11.160625 3.253995 -2.691368
11.233126 3.303995 -2.697618
15.365625 3.236495 -2.722618
15.425625 3.286495 -2.727618
5.171876 3.335245 -2.717618
5.232848 3.386495 -2.721507
6.050626 3.326495 -2.702618
6.133959 3.367051 -2.707062
7.365626 3.341495 -2.707618
7.415626 3.386495 -2.710118
9.220625 3.346495 -2.727618
11.273125 3.336495 -2.697618
11.323959 3.383162 -2.702618
15.470625 3.326495 -2.727618
15.495626 3.356495 -2.727618
5.283125 3.431495 -2.722618
5.334626 3.482995 -2.723618
6.185626 3.423995 -2.707618
6.246737 3.472607 -2.712062
7.458960 3.454829 -2.709284
7.505626 3.501495 -2.712618
11.375626 3.428995 -2.705118
11.430626 3.487745 -2.707618
5.390626 3.536495 -2.727618
5.430625 3.560870 -2.727618
6.290626 3.526495 -2.712618
6.335626 3.570870 -2.713868
7.556251 3.565870 -2.715743
11.475626 3.536495 -2.712618
11.521875 3.583995 -2.713868
5.468126 3.633995 -2.725118
5.500626 3.636495 -2.727618
6.350626 3.636495 -2.712618
6.439626 3.668495 -2.719618
7.640001 3.667746 -2.718243
11.578125 3.641495 -2.717618
11.630627 3.689829 -2.719284
6.485626 3.731495 -2.722618
6.532501 3.775245 -2.723243
7.690626 3.726495 -2.722618
7.729911 3.778638 -2.722618
11.678125 3.736495 -2.722618
11.733959 3.788162 -2.725951
6.575626 3.831495 -2.727618
6.624376 3.882120 -2.727618
7.775626 3.836495 -2.725118
7.813626 3.882495 -2.727618
11.780626 3.821495 -2.727618
6.668126 3.938995 -2.727618
7.862626 3.950495 -2.727618
-2.862231 10.065781 -2.653332
-2.796874 10.095245 -2.647618
-2.819374 10.161495 -2.657618
-2.804374 10.136496 -2.652618
-3.009374 10.326495 -2.707618
-2.869374 10.506495 -2.707618
-2.846041 10.564829 -2.710396
-2.829374 10.646496 -2.715951
8.108126 12.496495 -2.727618
7.948959 12.593163 -2.720951
8.043959 12.557329 -2.727618
5.773126 12.713995 -2.725118
7.765626 12.696495 -2.712618
7.843126 12.670662 -2.717618
7.923126 12.633995 -2.722618
22.295626 12.696495 -2.717618
5.636876 12.765245 -2.718243
5.749376 12.743996 -2.725118
5.820626 12.721495 -2.727618
7.680625 12.776495 -2.712618
7.740626 12.754496 -2.714618
9.865625 12.816496 -2.672618
10.375626 12.781496 -2.707618
21.655624 12.816496 -2.687618
21.770626 12.806496 -2.692618
21.835625 12.771496 -2.697618
21.955626 12.756495 -2.702618
22.085625 12.741495 -2.707618
22.210625 12.721495 -2.712618
3.470626 12.876495 -2.727618
5.446459 12.889829 -2.716784
5.533959 12.845663 -2.718451
5.600626 12.836495 -2.722618
7.490626 12.916495 -2.707618
7.565625 12.888163 -2.710951
7.656626 12.859495 -2.716618
10.378126 12.866495 -2.712618
10.405626 12.853995 -2.715118
21.475626 12.916495 -2.682618
21.525625 12.881495 -2.682618
21.605625 12.851496 -2.687618
2.950626 13.006495 -2.722618
3.110626 13.001495 -2.727618
5.285626 12.998995 -2.717618
5.347769 12.961495 -2.717618
5.400626 12.921495 -2.717618
7.352293 12.996495 -2.702618
7.428959 12.950663 -2.702618
7.553126 12.921495 -2.710118
10.383125 12.971495 -2.718868
21.155624 13.016495 -2.667618
21.248125 12.968996 -2.672618
21.410625 12.946495 -2.677618
2.530626 13.106495 -2.722618
2.690626 13.116495 -2.727618
2.737626 13.095495 -2.726618
2.845626 13.064829 -2.726784
2.934376 13.035245 -2.726368
4.963126 13.096495 -2.702618
5.085626 13.106495 -2.712618
5.144792 13.080662 -2.713451
5.238959 13.048162 -2.717618
7.243126 13.090245 -2.698868
7.315626 13.056496 -2.702618
10.175625 13.111496 -2.712618
10.210627 13.106495 -2.712618
10.352291 13.054829 -2.719284
21.020626 13.093996 -2.665118
21.110626 13.051496 -2.667618
2.035626 13.206495 -2.722618
2.120626 13.216496 -2.727618
2.247293 13.180662 -2.724284
2.347292 13.183163 -2.727618
2.442054 13.168638 -2.726903
2.528626 13.138494 -2.725618
2.630626 13.131495 -2.727618
4.863126 13.206495 -2.707618
4.943959 13.186495 -2.711784
5.049376 13.140245 -2.715118
7.040626 13.188162 -2.690951
7.136458 13.147329 -2.695118
7.205626 13.121495 -2.697618
10.173126 13.153996 -2.710118
10.285625 13.126495 -2.717618
10.365625 13.121495 -2.727618
20.790625 13.196495 -2.657618
20.875626 13.176496 -2.657618
20.930626 13.141495 -2.662618
0.975626 13.241495 -2.717618
1.590626 13.261496 -2.722618
1.978126 13.251495 -2.727618
2.040626 13.233162 -2.727618
2.124376 13.227745 -2.727618
2.218126 13.221495 -2.727618
4.673126 13.296495 -2.705118
4.743483 13.272924 -2.707618
4.820626 13.246495 -2.710951
6.858626 13.279495 -2.683618
6.941876 13.243996 -2.688868
7.035626 13.228162 -2.694284
9.868126 13.263996 -2.695118
9.935625 13.266495 -2.697618
10.173126 13.301495 -2.720118
10.233959 13.268162 -2.722618
20.670626 13.301496 -2.652618
20.743126 13.251495 -2.652618
4.365626 13.403996 -2.700118
4.475626 13.408995 -2.707618
4.541459 13.389829 -2.709284
4.634792 13.360662 -2.710951
6.690626 13.401495 -2.682618
6.745625 13.366495 -2.684284
6.810626 13.328995 -2.685118
9.340626 13.381495 -2.662618
9.573126 13.371495 -2.677618
9.635626 13.371495 -2.682618
9.862293 13.391496 -2.700951
9.920626 13.361496 -2.705118
10.148960 13.361496 -2.720951
20.580626 13.393995 -2.647618
20.625626 13.336495 -2.652618
4.005626 13.471495 -2.687618
4.158959 13.506495 -2.699284
4.240625 13.487209 -2.701903
4.333626 13.461495 -2.702618
4.431876 13.426496 -2.706368
6.667292 13.478162 -2.686785
9.385626 13.476496 -2.670118
9.415625 13.453995 -2.672618
9.550625 13.468996 -2.682618
9.608126 13.456495 -2.687618
9.750626 13.431496 -2.692618
9.823126 13.438995 -2.702618
20.540625 13.473995 -2.647618
3.763959 13.591496 -2.687618
3.875626 13.571495 -2.692618
3.939792 13.578996 -2.695951
4.045626 13.564829 -2.700118
4.120625 13.536495 -2.700951
5.870626 13.521496 -2.632618
6.535626 13.599495 -2.688618
6.604376 13.550245 -2.688868
9.073126 13.536495 -2.652618
9.137293 13.563162 -2.655951
9.243126 13.553995 -2.662618
9.359375 13.560246 -2.672618
20.505625 13.558995 -2.647618
2.917293 13.713162 -2.667618
3.190626 13.716496 -2.677618
3.470626 13.704828 -2.689284
3.578959 13.681496 -2.692618
3.644626 13.678495 -2.695618
3.724626 13.663495 -2.696618
3.852626 13.642495 -2.700618
6.285626 13.711495 -2.682618
6.347626 13.699495 -2.682618
6.439793 13.648162 -2.685951
8.790626 13.636496 -2.637618
8.810625 13.686495 -2.642618
9.085626 13.651495 -2.657618
9.135626 13.661495 -2.662618
20.460625 13.711495 -2.647618
20.505627 13.656496 -2.647618
2.554626 13.792496 -2.667618
2.626876 13.795246 -2.671368
2.735626 13.794495 -2.673618
2.857626 13.768496 -2.673618
2.965626 13.776495 -2.677618
3.075626 13.798996 -2.685118
3.139911 13.755066 -2.682618
3.253626 13.753495 -2.686618
3.344793 13.750662 -2.690951
3.425626 13.750246 -2.693868
3.541876 13.743996 -2.698868
6.170626 13.793995 -2.680118
6.245626 13.766495 -2.683451
8.820625 13.768995 -2.647618
8.970626 13.748995 -2.657618
9.068127 13.756495 -2.662618
9.145626 13.771496 -2.670951
20.465626 13.783995 -2.647618
1.990626 13.881495 -2.667618
2.043126 13.889829 -2.670118
2.117292 13.904829 -2.674284
2.260626 13.884829 -2.672618
2.370626 13.911495 -2.680951
2.440626 13.855781 -2.673332
2.508126 13.838995 -2.672618
2.678126 13.823996 -2.677618
2.750626 13.821495 -2.677618
2.830626 13.821496 -2.682618
3.037626 13.858496 -2.691618
6.030626 13.901495 -2.680951
6.143960 13.834828 -2.682618
8.668125 13.846495 -2.640118
8.770626 13.876495 -2.652618
8.820625 13.846496 -2.652618
20.450626 13.876495 -2.650118
1.883126 14.001495 -2.682618
1.940626 13.955662 -2.677618
2.167292 13.934829 -2.677618
2.233126 13.938995 -2.681368
2.325626 13.928162 -2.682618
5.974376 13.968995 -2.682618
6.000626 13.926496 -2.682618
20.545626 13.981495 -2.657618
1.783126 14.108995 -2.697618
1.832626 14.053495 -2.689618
5.963959 14.073162 -2.694284
20.555626 14.061495 -2.657618
1.730626 14.164495 -2.705618
5.760626 14.211495 -2.692618
5.843626 14.202496 -2.698618
5.936626 14.168495 -2.700618
20.613125 14.176495 -2.662618
1.663126 14.257746 -2.716368
5.768960 14.253162 -2.699284
20.670626 14.276495 -2.667618
1.570626 14.343996 -2.727618
1.610626 14.336495 -2.727618
5.680626 14.411495 -2.707618
5.737626 14.356495 -2.706618
20.735626 14.351496 -2.672618
5.668959 14.471495 -2.712618
5.705626 14.421495 -2.712618
20.782291 14.469830 -2.674284
5.585626 14.601496 -2.722618
5.645626 14.598162 -2.724284
5.700626 14.601496 -2.727618
20.568127 14.561495 -2.667618
20.685625 14.531496 -2.672618
21.170626 14.871495 -2.697618
17.440626 22.016495 -2.727618
17.508125 21.981495 -2.727618
17.390625 22.111496 -2.727618
17.410625 22.056496 -2.727618
17.290625 22.211494 -2.727618
17.325626 22.146496 -2.727618
17.105625 22.316496 -2.727618
17.220625 22.251495 -2.727618
17.120626 22.391495 -2.727618
15.955626 23.501495 -2.727618
16.010626 23.451496 -2.727618
15.820625 23.573996 -2.727618
15.895626 23.551497 -2.727618
15.565626 23.696495 -2.722618
15.640625 23.671497 -2.727618
15.733126 23.623997 -2.727618
15.447292 23.784830 -2.722618
15.530626 23.726496 -2.722618
15.255625 23.896496 -2.722618
15.343126 23.851496 -2.722618
15.065626 24.016497 -2.722618
15.145626 23.956495 -2.722618
14.955626 24.116495 -2.722618
15.020626 24.076496 -2.722618
14.775625 24.201496 -2.717618
14.848125 24.178997 -2.720118
14.910625 24.141497 -2.722618
14.660625 24.301497 -2.717618
14.720625 24.253996 -2.717618
14.535625 24.371496 -2.717618
14.620626 24.326496 -2.717618
14.358126 24.503996 -2.717618
14.438126 24.451496 -2.717618
14.257294 24.573162 -2.717618
14.130625 24.691496 -2.717618
14.195625 24.651495 -2.717618
13.780626 24.996496 -2.722618
13.795626 24.936497 -2.717618
13.743126 25.076496 -2.722618
13.643126 25.191496 -2.722618
13.705626 25.151495 -2.722618
13.530624 25.293995 -2.727618
13.600626 25.261496 -2.727618
13.358126 25.386497 -2.725118
13.445625 25.338997 -2.725118
13.170626 25.506496 -2.722618
13.250626 25.448164 -2.722618
13.073126 25.576496 -2.725118
13.130627 25.531496 -2.722618
12.955626 25.673996 -2.727618
13.020626 25.631496 -2.727618
12.780626 25.811497 -2.727618
12.840626 25.766495 -2.727618
12.900625 25.731495 -2.727618
12.675625 25.878996 -2.727618
12.745626 25.851496 -2.727618
12.485626 25.996496 -2.727618
12.550625 25.958996 -2.727618
12.615625 25.921495 -2.727618
12.353127 26.106495 -2.727618
12.430626 26.046497 -2.727618
12.155626 26.216496 -2.727618
12.238960 26.154829 -2.727618
12.058126 26.288996 -2.727618
12.115625 26.246496 -2.727618
-5.249374 -11.878504 -2.627618
-5.171875 -11.866005 -2.627618
-5.064374 -11.838505 -2.622618
-4.989374 -11.808504 -2.622618
-4.904374 -11.703505 -2.617618
-4.714374 -11.693504 -2.612618
-4.674374 -11.713505 -2.612618
-5.634374 -11.648504 -2.622618
-4.739374 -11.618504 -2.607618
-4.581874 -11.613504 -2.607618
-5.634374 -11.508505 -2.617618
-4.784374 -11.546003 -2.607618
-4.494374 -11.568504 -2.602618
-4.069374 -11.426004 -2.592618
-3.979374 -11.416004 -2.590118
-3.904374 -11.388504 -2.587618
-5.614374 -11.333504 -2.612618
-4.124374 -11.368504 -2.592618
-3.849374 -11.358503 -2.587618
-3.774374 -11.313503 -2.582618
-5.604374 -11.188503 -2.602618
-4.239374 -11.183504 -2.582618
-3.671874 -11.258505 -2.580118
-3.599374 -11.238504 -2.577618
-3.476874 -11.186005 -2.572618
-4.109374 -11.178505 -2.582618
-3.534374 -11.153503 -2.572618
-3.409374 -11.173504 -2.572618
-3.129374 -11.083504 -2.567618
-5.594374 -11.038504 -2.597618
-4.154374 -11.033504 -2.577618
-3.259374 -10.996004 -2.562618
-3.159374 -11.028503 -2.562618
-3.059374 -11.046005 -2.562618
-2.964374 -11.013504 -2.560118
-4.224374 -10.978504 -2.572618
-4.094374 -10.978504 -2.572618
-3.314374 -10.963505 -2.562618
-3.184374 -10.958504 -2.562618
-2.866874 -10.968504 -2.557618
-2.774374 -10.928505 -2.555118
-2.681874 -10.896004 -2.552618
-5.579374 -10.873505 -2.587618
-4.239374 -10.878504 -2.572618
-2.619374 -10.878504 -2.552618
-2.549374 -10.846004 -2.547618
-2.459374 -10.818504 -2.547618
-2.352708 -10.791838 -2.544284
-2.229374 -10.788504 -2.542618
-5.564374 -10.718504 -2.582618
-2.264374 -10.768505 -2.542618
-2.159374 -10.758505 -2.542618
-2.052707 -10.748503 -2.540951
-1.954374 -10.751003 -2.537618
-1.889374 -10.748505 -2.537618
-1.674374 -10.683504 -2.532618
-1.557708 -10.710171 -2.534284
-1.314374 -10.703505 -2.532618
-5.564374 -10.593504 -2.577618
-1.829374 -10.643505 -2.532618
-1.752708 -10.661837 -2.532618
-1.629374 -10.643505 -2.532618
-1.469374 -10.658504 -2.532618
-1.366874 -10.671005 -2.532618
-5.614374 -10.483503 -2.572618
-5.744374 -10.478504 -2.577618
-5.674374 -10.476006 -2.572618
-5.564374 -10.473505 -2.572618
-5.654374 -9.810171 -2.544284
-5.549374 -9.821003 -2.542618
3.250626 -6.141838 -2.627618
3.318126 -6.103505 -2.627618
3.375626 -6.071005 -2.627618
3.442292 -6.030171 -2.622618
3.513126 -5.996005 -2.622618
3.565626 -5.956005 -2.620118
3.649376 -5.931005 -2.617618
3.715626 -5.893505 -2.617618
3.755626 -5.868505 -2.617618
3.823959 -5.820172 -2.614285
3.875626 -5.778505 -2.612618
3.940626 -5.744755 -2.611368
4.000626 -5.688505 -2.607618
4.280626 -2.483505 -2.627618
4.340626 -2.452505 -2.627618
4.428126 -2.397254 -2.627618
4.483126 -2.358505 -2.625118
4.553626 -2.320505 -2.622618
4.610626 -2.288505 -2.622618
4.653959 -2.270172 -2.622618
