29.60678864 -2.15443301 -1.72321606
29.70679092 -2.24943399 -1.72321606
-21.61320877 -2.11443400 -1.72321606
5.56678915 -2.08443403 -1.72321606
5.60928917 -2.09568405 -1.72321606
5.70512199 -2.09943390 -1.72321606
29.57178879 -2.06443405 -1.72321606
-21.59820938 -1.99693406 -1.72321606
5.70678902 -1.99943399 -1.72321606
6.32178879 -1.97443402 -1.72321606
29.51678848 -1.98443401 -1.72321606
-21.56320953 -1.88943398 -1.72321606
29.52178955 -1.91443300 -1.72321606
-21.56821060 -1.80943406 -1.72321606
5.63678885 -1.82443297 -1.72321606
7.10178900 -1.75443399 -1.72321606
7.34678888 -1.76943398 -1.72321606
29.49179077 -1.82443297 -1.72321606
-21.55321121 -1.71443403 -1.72321606
-8.78571033 -1.66443300 -1.72321606
5.66679001 -1.69443405 -1.72321606
5.74678898 -1.65443301 -1.72321606
5.77678919 -1.66443300 -1.72321606
6.85178900 -1.67943394 -1.72321606
6.92345619 -1.66110003 -1.72321606
7.04179001 -1.66943395 -1.72321606
7.21178913 -1.65943301 -1.72321606
29.41178894 -1.70693302 -1.72321606
-21.53821182 -1.64943397 -1.72321606
-21.52321243 -1.58443403 -1.72321606
-8.86821079 -1.58193398 -1.72321606
-8.82321072 -1.61943305 -1.72321606
5.73678923 -1.61693394 -1.72321606
5.82678890 -1.59818399 -1.72321606
5.88928890 -1.57443297 -1.72321606
6.04678917 -1.56443405 -1.72321606
6.33178902 -1.55443394 -1.72321606
6.42178917 -1.59193301 -1.72321606
6.52512312 -1.60776699 -1.72321606
6.61678982 -1.61776698 -1.72321606
6.71012306 -1.63610101 -1.72321606
6.81012201 -1.64943397 -1.72321606
6.95178890 -1.61943305 -1.72321606
7.09845591 -1.62276697 -1.72321606
7.20178890 -1.64943397 -1.72321606
7.29179001 -1.64943397 -1.72321606
29.34178925 -1.57443297 -1.72321606
-25.09321213 -1.50943398 -1.72321606
-25.01321030 -1.54443395 -1.72321606
-21.50571060 -1.49943399 -1.72321606
5.92845583 -1.53110003 -1.72321606
5.99678898 -1.53943300 -1.72321606
6.12428999 -1.47193396 -1.72321606
6.21178913 -1.49109995 -1.72321606
6.29179001 -1.52943301 -1.72321606
29.31179047 -1.49943399 -1.72321606
-25.45320892 -1.36443305 -1.72321606
-25.36320877 -1.39943397 -1.72321606
-21.49320984 -1.40443301 -1.72321606
-9.24487686 -1.37943494 -1.72321606
-9.20821095 -1.42943394 -1.72321606
6.02928877 -1.41943395 -1.72321606
6.10679007 -1.44443405 -1.72321606
29.30178833 -1.39943397 -1.72321606
-25.78821182 -1.27443397 -1.72321606
-25.66321182 -1.29443395 -1.72321606
-25.54320908 -1.32943296 -1.72321606
-21.47320938 -1.31443298 -1.72321606
-9.20321083 -1.26943398 -1.72321606
29.22179031 -1.26943398 -1.72321606
-26.03321075 -1.21443403 -1.72321606
-25.91321182 -1.24443305 -1.72321606
-21.45071030 -1.18943298 -1.72321606
29.20178986 -1.19443405 -1.72321606
-26.02321243 -1.14943397 -1.72321606
-21.42821121 -1.09943402 -1.72321606
-12.55821037 -1.13943398 -1.72321606
-12.49321079 -1.05943406 -1.72321606
29.12178802 -1.10443401 -1.72321606
-26.69071198 -0.97943401 -1.72321606
-26.48321152 -1.01443398 -1.72321606
-26.17321014 -0.99443400 -1.72321606
-21.40821075 -1.00943398 -1.72321606
-9.12821102 -1.02443397 -1.72321606
29.12678909 -1.04443395 -1.72321606
-26.81320953 -0.91443300 -1.72321606
-21.39321136 -0.88943398 -1.72321606
28.93679047 -0.91943401 -1.72321606
29.00679016 -0.86943400 -1.72321606
-26.78321075 -0.80193400 -1.72321606
-21.37321091 -0.80443400 -1.72321606
29.07678986 -0.81943399 -1.72321606
29.25679016 -0.80443400 -1.72321606
29.36679077 -0.76443398 -1.72321606
-26.75820923 -0.69943398 -1.72321606
-21.35570908 -0.70943397 -1.72321606
29.43679047 -0.71943402 -1.72321606
29.52178955 -0.67443401 -1.72321606
-33.46321106 -0.58443397 -1.72321606
-26.75571060 -0.59693301 -1.72321606
-21.72320938 -0.57943398 -1.72321606
-21.51821136 -0.56943399 -1.72321606
-21.35821152 -0.59943402 -1.72321606
9.23928928 -0.59193403 -1.72321606
29.53678894 -0.60443401 -1.72321606
29.59679031 -0.55443400 -1.72321606
-33.45320892 -0.50443399 -1.72321606
-26.78821182 -0.50443399 -1.72321606
-21.73321152 -0.52943403 -1.72321606
29.65678787 -0.49943399 -1.72321606
29.75679016 -0.45943400 -1.72321606
-33.42321014 -0.41943401 -1.72321606
-28.97320938 -0.44943401 -1.72321606
-28.52820969 -0.40443400 -1.72321606
-26.95820999 -0.35443401 -1.72321606
-26.88320923 -0.39943400 -1.72321606
-26.80321121 -0.43943399 -1.72321606
29.80678940 -0.40443400 -1.72321606
29.88179016 -0.35443401 -1.72321606
-27.14321136 -0.26443401 -1.72321606
-12.31320953 -0.30443400 -1.72321606
29.95679092 -0.30443400 -1.72321606
-27.52321243 -0.22943400 -1.72321606
-27.35321045 -0.24943399 -1.72321606
-12.31320953 -0.22943400 -1.72321606
30.02679062 -0.24943399 -1.72321606
30.07678986 -0.19443400 -1.72321606
-33.38320923 -0.08943400 -1.72321606
-12.22321033 -0.12443400 -1.72321606
30.16178894 -0.14943400 -1.72321606
30.21178818 -0.08943400 -1.72321606
-33.36820984 -0.00443400 -1.72321606
-28.03821182 -0.01443400 -1.72321606
30.30178833 -0.00443400 -1.72321606
-33.35321045 0.07556600 -1.72321606
-28.29071045 0.10056600 -1.72321606
-28.03321075 0.05556600 -1.72321606
30.36679077 0.08056600 -1.72321606
30.43679047 0.13056600 -1.72321606
-33.35321045 0.16056600 -1.72321606
-33.32320786 0.24556600 -1.72321606
-12.17821026 0.23556601 -1.72321606
30.52178955 0.21806601 -1.72321606
-33.32320786 0.32056600 -1.72321606
-28.00321198 0.30556601 -1.72321606
-12.17071056 0.29306599 -1.72321606
30.59679031 0.30056599 -1.72321606
-33.28321075 0.41056600 -1.72321606
-28.26821136 0.41556600 -1.72321606
-27.99821091 0.40556601 -1.72321606
-12.25321102 0.41556600 -1.72321606
-12.18487740 0.37723300 -1.72321606
30.66178894 0.36056599 -1.72321606
30.72179031 0.41556600 -1.72321606
-33.28321075 0.49056599 -1.72321606
-28.22320938 0.49056599 -1.72321606
30.76678848 0.47556600 -1.72321606
30.82678986 0.53556597 -1.72321606
-33.28820801 0.57056600 -1.72321606
30.84679031 0.60056603 -1.72321606
-33.25820923 0.65556598 -1.72321606
30.93429184 0.68556601 -1.72321606
31.01678848 0.77556598 -1.72321606
31.08678818 0.82556599 -1.72321606
41.66178894 9.42056656 -1.72321606
41.61679077 9.51056671 -1.72321606
41.61679077 9.60056686 -1.72321606
41.58679199 9.70056629 -1.72321606
41.56179047 9.78556633 -1.72321606
41.54179001 9.86556625 -1.72321606
41.55678940 9.96056747 -1.72321606
-3.44071102 10.09306622 -1.72321606
-3.37071109 10.08931637 -1.72321606
-3.28321004 10.09723282 -1.72321606
-3.16421008 10.08856583 -1.72321606
-3.08098793 10.12612247 -1.72321606
41.52428818 10.09556580 -1.72321606
-3.00209999 10.19723320 -1.72321606
41.52178955 10.23556614 -1.72321606
-2.97178197 10.29485226 -1.72321606
-2.92487693 10.31723309 -1.72321606
41.49679184 10.32056618 -1.72321606
-2.95321107 10.42056656 -1.72321606
-2.92821097 10.36806679 -1.72321606
41.46678925 10.41056633 -1.72321606
41.48678970 10.50556660 -1.72321606
41.48678970 10.59556580 -1.72321606
41.49179077 10.69056606 -1.72321606
41.52679062 10.78056622 -1.72321606
41.48678970 10.86556625 -1.72321606
41.52178955 10.96556664 -1.72321606
41.56679153 11.06056595 -1.72321606
41.58679199 11.15056610 -1.72321606
41.73678970 11.26056671 -1.72321606
41.72179031 11.35056686 -1.72321606
41.98178864 11.47056580 -1.72321606
41.91679001 11.56056595 -1.72321606
42.02178955 11.66556644 -1.72321606
42.16679001 11.77056694 -1.72321606
24.57678986 12.21056747 -1.72321606
24.53178787 12.25556564 -1.72321606
24.45178986 12.40056610 -1.72321606
24.48678970 12.36056614 -1.72321606
24.43679047 12.48306656 -1.72321606
24.35678864 12.60556602 -1.72321606
24.45178986 12.57056618 -1.72321606
24.22678757 12.73556614 -1.72321606
24.31428909 12.67556572 -1.72321606
24.18928909 12.81056595 -1.72321606
24.11428833 12.89806747 -1.72321606
24.05178833 12.99306679 -1.72321606
5.51428890 13.10306454 -1.72321606
24.00178909 13.09056664 -1.72321606
23.99679184 13.20056629 -1.72321606
23.93679047 13.32056618 -1.72321606
23.97179031 13.27556610 -1.72321606
23.93178940 13.37556553 -1.72321606
7.79179001 13.51556587 -1.72321606
22.04179001 13.51556587 -1.72321606
22.23678970 13.51556587 -1.72321606
22.42179108 13.52056694 -1.72321606
22.56678772 13.51556587 -1.72321606
22.57678986 13.46556664 -1.72321606
24.03678894 13.46056747 -1.72321606
24.10678864 13.53556633 -1.72321606
7.65178919 13.55056572 -1.72321606
7.72845602 13.57056618 -1.72321606
7.78428888 13.55056572 -1.72321606
20.58179092 13.63556671 -1.72321606
20.69678879 13.62556553 -1.72321606
20.79679108 13.61056614 -1.72321606
20.92678833 13.60556602 -1.72321606
21.03678894 13.59056664 -1.72321606
21.99929047 13.57306671 -1.72321606
23.09178925 13.56556606 -1.72321606
24.06678772 13.64056587 -1.72321606
24.13679123 13.59556580 -1.72321606
19.40678787 13.74556637 -1.72321606
19.52679062 13.74056625 -1.72321606
19.61679077 13.73056602 -1.72321606
19.74179077 13.72556686 -1.72321606
19.85178757 13.72056580 -1.72321606
19.96178818 13.71056747 -1.72321606
20.04179001 13.69056606 -1.72321606
20.16679001 13.69056606 -1.72321606
20.25178909 13.67056656 -1.72321606
20.37178802 13.66056633 -1.72321606
20.47678757 13.65056610 -1.72321606
22.00679016 13.65556622 -1.72321606
24.02679062 13.70556641 -1.72321606
18.65179062 13.83056641 -1.72321606
18.72678757 13.81556606 -1.72321606
18.83678818 13.81056595 -1.72321606
18.94678879 13.80556679 -1.72321606
18.97678757 13.77056694 -1.72321606
19.34178925 13.79306602 -1.72321606
24.10678864 13.81556606 -1.72321606
18.60179138 13.87556553 -1.72321606
19.32178879 13.85556602 -1.72321606
22.16178894 13.91056633 -1.72321606
18.06678772 14.04556656 -1.72321606
18.09928894 13.99306679 -1.72321606
2.39678907 14.10306644 -1.72321606
18.04179001 14.12056637 -1.72321606
18.07678986 14.09056664 -1.72321606
2.43678999 14.15889931 -1.72321606
2.48178911 14.17056656 -1.72321606
18.02178955 14.20723343 -1.72321606
23.68178940 14.24056625 -1.72321606
17.99179077 14.30556679 -1.72321606
23.67678833 14.29556656 -1.72321606
17.94678879 14.37556553 -1.72321606
-12.09321022 16.02056503 -1.72321606
3.05678892 16.01556587 -1.72321606
3.11053896 16.02306557 -1.72321606
3.17678905 16.03306580 -1.72321606
-12.51321125 16.11056519 -1.72321606
2.15178895 16.14056587 -1.72321606
2.17178893 16.14056587 -1.72321606
-12.48571110 16.17806625 -1.72321606
-12.39821053 16.18556595 -1.72321606
2.05178905 16.16556549 -1.72321606
2.10178900 16.17181778 -1.72321606
1.01178896 16.26556587 -1.72321606
1.26678896 16.34556580 -1.72321606
1.30678904 16.33889961 -1.72321606
0.56678897 16.44056702 -1.72321606
1.04678905 16.39556503 -1.72321606
1.12078905 16.38156509 -1.72321606
1.21553898 16.38556671 -1.72321606
0.61803901 16.52181625 -1.72321606
0.67178899 16.48556519 -1.72321606
3.40678906 16.46556664 -1.72321606
2.31178999 17.04056549 -1.72321606
2.34178901 17.08056641 -1.72321606
24.31678772 18.79056549 -1.72321606
24.47179031 18.93056488 -1.72321606
24.42929077 19.00806618 -1.72321606
24.34679031 19.13056564 -1.72321606
24.38679123 19.08056641 -1.72321606
24.39178848 19.22056580 -1.72321606
24.46178818 19.32056618 -1.72321606
24.44178772 19.41306686 -1.72321606
24.42179108 19.50556564 -1.72321606
24.42428970 19.61056519 -1.72321606
24.37678909 19.68056488 -1.72321606
24.36679077 19.75056648 -1.72321606
24.37678909 19.82056618 -1.72321606
24.40678787 19.90556717 -1.72321606
24.39678955 19.96556664 -1.72321606
24.44678879 20.06056595 -1.72321606
24.55678940 20.19556618 -1.72321606
24.61679077 20.29556656 -1.72321606
24.67678833 20.40056610 -1.72321606
24.68178940 20.50806618 -1.72321606
24.65678787 20.59556580 -1.72321606
24.64429092 20.70056534 -1.72321606
24.70679092 20.83556747 -1.72321606
24.72678757 20.92056656 -1.72321606
24.74678802 21.00556564 -1.72321606
24.76179123 21.08556747 -1.72321606
24.75679016 21.15556717 -1.72321606
24.78678894 21.24556732 -1.72321606
24.79679108 21.32556534 -1.72321606
24.80678940 21.40556717 -1.72321606
24.82678986 21.49056625 -1.72321606
24.80928802 21.58806610 -1.72321606
24.73429108 21.68806648 -1.72321606
24.86679077 21.88556671 -1.72321606
25.46678925 22.33556747 -1.72321606
24.91679001 22.43556595 -1.72321606
25.03678894 22.44056702 -1.72321606
25.50178909 22.43056488 -1.72321606
10.79679012 22.54306793 -1.72321606
24.89678955 22.50056648 -1.72321606
25.20178986 22.47056580 -1.72321606
25.55678940 22.54056549 -1.72321606
9.90428925 22.64056778 -1.72321606
10.01512337 22.63056564 -1.72321606
10.11928940 22.60806656 -1.72321606
10.23345566 22.60223389 -1.72321606
10.33928967 22.57556534 -1.72321606
10.42428875 22.56806564 -1.72321606
10.53178883 22.58306503 -1.72321606
10.62178898 22.57556534 -1.72321606
10.71928978 22.57556534 -1.72321606
24.85678864 22.55056763 -1.72321606
24.87678909 22.64556503 -1.72321606
9.16178894 22.74556732 -1.72321606
9.24678898 22.73056602 -1.72321606
9.30928898 22.72806549 -1.72321606
9.41178894 22.70723343 -1.72321606
9.51928902 22.69806671 -1.72321606
9.62678909 22.67889786 -1.72321606
9.72928905 22.65806580 -1.72321606
9.81678867 22.65556717 -1.72321606
11.06179047 22.69556618 -1.72321606
11.09678936 22.66556549 -1.72321606
25.63179016 22.67056656 -1.72321606
8.55178928 22.84556580 -1.72321606
8.63012314 22.83223343 -1.72321606
8.73428917 22.82306671 -1.72321606
8.81428909 22.80556488 -1.72321606
8.91679001 22.78723335 -1.72321606
9.01678944 22.76556778 -1.72321606
9.09928894 22.75556564 -1.72321606
9.20678902 22.75056648 -1.72321606
8.11178970 22.92889977 -1.72321606
8.21178913 22.91306686 -1.72321606
8.31179047 22.89056587 -1.72321606
8.40928936 22.87056732 -1.72321606
8.48928928 22.86056519 -1.72321606
11.08178902 22.88056564 -1.72321606
7.62929010 23.03556442 -1.72321606
7.72178888 23.01390076 -1.72321606
7.82178879 22.99306488 -1.72321606
7.91845608 22.97556686 -1.72321606
8.01928902 22.95806503 -1.72321606
11.18178940 22.96056747 -1.72321606
25.13179016 23.04056549 -1.72321606
25.24679184 22.99806595 -1.72321606
7.06178999 23.13556671 -1.72321606
7.12428999 23.13556671 -1.72321606
7.22678900 23.12889862 -1.72321606
7.32428885 23.11056519 -1.72321606
7.42012310 23.08723450 -1.72321606
7.51178885 23.06556702 -1.72321606
7.57178879 23.05556488 -1.72321606
24.79679108 23.12556458 -1.72321606
24.91429138 23.09306717 -1.72321606
25.03678894 23.05556488 -1.72321606
6.81928921 23.19556427 -1.72321606
6.91345501 23.17889786 -1.72321606
7.02179003 23.18556595 -1.72321606
24.75178909 23.17556763 -1.72321606
6.73679018 23.31056595 -1.72321606
6.78178883 23.26556778 -1.72321606
6.65178919 23.35556793 -1.72321606
6.69178915 23.36056519 -1.72321606
6.63178921 23.48806763 -1.72321606
6.60178900 23.58056641 -1.72321606
25.69178772 23.89556503 -1.72321606
22.91679001 24.03056717 -1.72321606
22.44678879 24.12556458 -1.72321606
22.53678894 24.12556458 -1.72321606
22.61679077 24.10556793 -1.72321606
22.70679092 24.10056686 -1.72321606
25.81179047 24.10056686 -1.72321606
21.52679062 24.24056625 -1.72321606
21.62178802 24.23556519 -1.72321606
21.70178986 24.22056580 -1.72321606
21.78178787 24.21556473 -1.72321606
21.91679001 24.20806503 -1.72321606
22.00679016 24.16056442 -1.72321606
22.12178802 24.18556595 -1.72321606
22.20178986 24.16556549 -1.72321606
22.29679108 24.16056442 -1.72321606
22.37678909 24.15056610 -1.72321606
25.79679108 24.21056747 -1.72321606
21.30678940 24.29056549 -1.72321606
21.41178894 24.25556564 -1.72321606
25.79679108 24.29556656 -1.72321606
20.40678787 24.44056702 -1.72321606
20.51678848 24.42056656 -1.72321606
20.62678909 24.40556717 -1.72321606
20.75679016 24.43556595 -1.72321606
20.84679031 24.43556595 -1.72321606
20.92428970 24.38556671 -1.72321606
21.03678894 24.36556625 -1.72321606
25.80678940 24.38556671 -1.72321606
20.16679001 24.53556442 -1.72321606
20.22678757 24.51556778 -1.72321606
20.31179047 24.51056671 -1.72321606
25.80178833 24.46556473 -1.72321606
19.94678879 24.64556503 -1.72321606
20.04179001 24.62056732 -1.72321606
20.13179016 24.58056641 -1.72321606
25.81678772 24.60056686 -1.72321606
19.89178848 24.67556763 -1.72321606
25.83678818 24.74056625 -1.72321606
25.83678818 24.82056808 -1.72321606
25.81678772 24.89556503 -1.72321606
25.82178879 24.98556519 -1.72321606
25.83179092 25.07056808 -1.72321606
24.08678818 30.84556580 -1.72321606
24.21678925 30.81556702 -1.72321606
24.35178757 30.80056763 -1.72321606
24.43178940 30.77556610 -1.72321606
23.36679077 30.94056702 -1.72321606
23.46678925 30.94056702 -1.72321606
23.54679108 30.92556763 -1.72321606
23.63679123 30.91056442 -1.72321606
23.73178864 30.90556717 -1.72321606
23.81179047 30.87556458 -1.72321606
23.91178894 30.87556458 -1.72321606
23.99179077 30.85556793 -1.72321606
22.85678864 31.02556610 -1.72321606
22.94678879 31.02056503 -1.72321606
23.02178955 31.00556564 -1.72321606
23.11679077 30.99056625 -1.72321606
23.20679092 30.98056793 -1.72321606
23.28678894 30.96556473 -1.72321606
22.21179199 31.12306595 -1.72321606
22.34679031 31.11056519 -1.72321606
22.45178986 31.11556625 -1.72321606
22.53178787 31.10056686 -1.72321606
22.61679077 31.09056473 -1.72321606
22.70178986 31.08056641 -1.72321606
22.77178955 31.05056763 -1.72321606
-15.12320995 51.82056427 -1.72321606
-14.98321056 51.75056458 -1.72321606
-14.69821072 51.92056656 -1.72321606
-14.98821068 52.06556702 -1.72321606
-14.86821079 52.05056381 -1.72321606
-14.67321110 52.14556503 -1.72321606
-14.53321075 52.07556534 -1.72321606
-14.30821037 52.09556580 -1.72321606
-14.19821072 52.10056686 -1.72321606
-14.13321018 52.24556351 -1.72321606
-14.02321053 52.23056412 -1.72321606
-13.78321075 52.16556549 -1.72321606
-14.47821045 52.25556564 -1.72321606
-13.93321037 52.30556488 -1.72321606
-13.69321060 52.27056503 -1.72321606
-13.58321095 52.28056717 -1.72321606
-13.53821087 52.43556595 -1.72321606
-13.43321037 52.50056458 -1.72321606
-13.21321106 52.50556564 -1.72321606
-12.99821091 52.51556396 -1.72321606
-12.87821102 52.51056671 -1.72321606
-13.35321045 52.60556412 -1.72321606
-13.11321068 52.55556488 -1.72321606
-12.84321022 52.76056671 -1.72321606
-11.64321041 53.24056625 -1.72321606
-11.08821106 53.24556351 -1.72321606
-11.76821041 53.29556656 -1.72321606
-11.55821037 53.31556702 -1.72321606
-11.91821098 53.42556381 -1.72321606
-11.34821033 53.36556625 -1.72321606
-11.24321079 53.40556717 -1.72321606
-4.03321123 53.37056351 -1.72321606
-3.82321095 53.40556717 -1.72321606
-3.71821094 53.43056488 -1.72321606
-12.73821068 53.53056717 -1.72321606
-12.50821018 53.52556610 -1.72321606
-12.04821110 53.47556686 -1.72321606
-11.48821068 53.47056580 -1.72321606
-11.04321098 53.47056580 -1.72321606
-4.46821117 53.51556396 -1.72321606
-12.65821075 53.64056396 -1.72321606
-3.94821095 53.59556580 -1.72321606
-2.26321101 53.57056427 -1.72321606
-2.15821099 53.58556366 -1.72321606
-12.43321037 53.67056656 -1.72321606
-4.27821112 53.73056412 -1.72321606
-4.16321087 53.65056610 -1.72321606
-2.48821092 53.70056534 -1.72321606
-2.37821102 53.67556381 -1.72321606
-12.34821033 53.77056503 -1.72321606
-12.23321056 53.77556610 -1.72321606
-3.64320993 53.76556396 -1.72321606
-2.59821105 53.84056473 -1.72321606
-4.39821100 53.85556412 -1.72321606
-3.54821110 53.88556671 -1.72321606
-2.71321106 53.93556595 -1.72321606
-3.45820999 53.99556351 -1.72321606
-3.35821104 54.03556442 -1.72321606
-2.93321109 54.03556442 -1.72321606
-2.82321095 53.96556473 -1.72321606
-3.04821110 54.12556458 -1.72321606
-3.27321100 54.33056641 -1.72321606
-3.16321111 54.26556396 -1.72321606
-3.34320998 10.08556747 -1.59821606
-3.27121091 10.08256626 -1.60021603
-3.18606806 10.10699463 -1.60321605
-3.09821105 10.13473320 -1.60321605
-3.04321098 10.16556644 -1.60321605
-2.99258590 10.21306610 -1.60321605
-2.95008612 10.29744053 -1.60321605
-2.93821001 10.36306572 -1.60321605
5.37679005 -3.68443394 -1.45821595
5.39345598 -3.59276795 -1.45821595
5.41679001 -3.48193407 -1.45821595
5.40678883 -3.36443305 -1.46321595
5.43012285 -3.29110098 -1.46321595
5.43178892 -3.17943406 -1.46821594
5.43845606 -3.06776690 -1.46821594
5.46178913 -2.97193289 -1.46821594
5.48179007 -2.89693403 -1.47321606
5.49428892 -2.80443311 -1.47321606
5.49678898 -2.70193410 -1.47571599
5.74928999 -2.67443395 -1.47321606
5.51178885 -2.59276795 -1.47821605
5.63928890 -2.61193395 -1.47821605
5.71678877 -2.60693407 -1.47321606
5.80845594 -2.60443306 -1.47321606
5.54429007 -2.52943301 -1.47821605
5.64679003 -2.18943405 -1.48321605
5.60178900 -2.05443406 -1.48821604
5.60178900 -1.99943399 -1.48821604
5.61512280 -1.92776799 -1.48988199
5.73679018 -1.89443398 -1.48821604
5.79178905 -1.90193403 -1.48821604
5.63012314 -1.81276703 -1.49321604
5.84428883 -1.80943406 -1.49071598
5.92178917 -1.79443395 -1.48821604
7.16178894 -1.75443399 -1.47321606
5.75179005 -1.71443403 -1.49321604
5.82178879 -1.68193305 -1.49321604
5.91178894 -1.67943394 -1.49321604
6.00179005 -1.70443296 -1.49321604
7.11678886 -1.69193399 -1.47821605
7.22345591 -1.72109997 -1.47321606
7.28678894 -1.70693302 -1.47321606
5.92428923 -1.56943405 -1.49321604
5.98428917 -1.56443405 -1.49321604
6.18678999 -1.55943406 -1.49321604
6.30178881 -1.55443394 -1.48821604
6.54678917 -1.55943406 -1.48821604
6.58178902 -1.57443297 -1.48821604
6.83929014 -1.60193300 -1.48321605
6.91803885 -1.59443402 -1.48196602
6.99178886 -1.60443401 -1.47821605
6.02928877 -1.51068401 -1.49321604
6.09678888 -1.51943398 -1.49321604
6.23678923 -1.52943301 -1.49321604
6.33345604 -1.51610100 -1.49154902
6.42428923 -1.51443398 -1.48821604
6.51678896 -1.54943395 -1.48821604
6.61928892 -1.51568305 -1.48821604
6.71678877 -1.50693405 -1.48571599
6.60679007 -1.44443405 -1.48821604
9.20678997 -0.56693399 -1.46321595
-3.25321102 10.14056587 -1.47821605
-3.15987706 10.14556599 -1.47821605
-3.11821103 10.14056587 -1.48321605
-3.25571108 10.16806602 -1.47571599
-3.22820997 10.17056656 -1.47821605
-3.08883595 10.18744087 -1.48259103
-3.04821110 10.27431679 -1.47884095
-3.01321101 10.32056618 -1.47821605
5.45178890 13.09056664 -1.54821599
5.50345612 13.09889984 -1.54488206
7.76428890 13.53056622 -1.50321603
7.64178896 13.57056618 -1.50321603
7.70553923 13.56306553 -1.50321603
2.39928889 14.14556694 -1.55321598
2.44512296 14.16056633 -1.55321598
2.64178896 16.11306763 -1.50821602
2.71012306 16.08889961 -1.50821602
2.07678890 16.19556618 -1.50821602
2.59178901 16.20306587 -1.50321603
2.74178910 16.15056610 -1.50821602
1.03678894 16.43556595 -1.50321603
1.16178894 16.35056686 -1.50321603
1.21678901 16.42181778 -1.50321603
1.31278896 16.41156769 -1.50321603
1.40678895 16.38306808 -1.50321603
0.82278901 16.49356651 -1.50321603
0.92053902 16.52306747 -1.50321603
0.99678898 16.46223259 -1.50321603
4.75178909 -6.68443394 -1.39321601
4.81178999 -6.68193293 -1.39321601
4.90512323 -6.66610003 -1.39321601
5.02178907 -6.72109985 -1.39321601
4.79678917 -6.62943411 -1.39321601
4.83678913 -5.87943411 -1.41321599
4.85679007 -5.83943415 -1.41321599
4.88678885 -5.83943415 -1.41321599
4.86678886 -5.66943407 -1.41821599
4.91178894 -5.67193317 -1.41821599
4.95678902 -5.61943293 -1.41821599
4.99178886 -5.58443403 -1.41821599
5.03012180 -5.52110100 -1.41821599
5.08678913 -5.49943399 -1.41821599
5.13178921 -5.40943289 -1.41946602
5.15178919 -5.24943399 -1.42321599
5.17178917 -5.20943403 -1.42321599
5.17678881 -5.09443378 -1.42821598
5.19678879 -4.98693419 -1.42821598
5.21178913 -4.89943409 -1.43321598
5.21928883 -4.78943300 -1.43321598
5.23679018 -4.67693281 -1.43571603
5.23678923 -4.55943394 -1.43821597
9.53678989 -4.62943411 -1.38821602
5.24678898 -4.50443411 -1.43821597
9.53678894 -4.52193403 -1.39071596
5.25678921 -4.42193317 -1.44071603
9.55012321 -4.40443420 -1.39321601
5.27679014 -4.31443310 -1.44321597
9.56678963 -4.29443502 -1.39321601
5.28678894 -4.19693422 -1.44571602
9.57928944 -4.20693398 -1.39571595
5.30178881 -4.09193277 -1.44821596
9.58678913 -4.11693382 -1.39821601
5.31178999 -3.97443295 -1.44821596
9.60012245 -4.00776720 -1.39821601
5.33928919 -3.89693403 -1.45321596
9.61678982 -3.90193391 -1.40071595
5.35178900 -3.78943300 -1.45321596
9.63178921 -3.79609990 -1.40321600
5.36178923 -3.71443391 -1.45321596
9.64428997 -3.68943310 -1.40321600
9.65178967 -3.60443401 -1.40571594
9.66512203 -3.50110102 -1.40821600
9.67678928 -3.39693403 -1.40821600
9.69178963 -3.31943393 -1.41071606
-9.61571026 -3.17693400 -1.38321602
9.69678974 -3.21443391 -1.41321599
-9.61821079 -3.10943389 -1.38321602
9.71178913 -3.09610105 -1.41321599
-9.59821033 -3.02693391 -1.38571596
9.72678947 -2.99693394 -1.41571605
-9.58571053 -2.92193389 -1.38821602
9.73845577 -2.89943409 -1.41821599
-9.56821060 -2.81943393 -1.38821602
9.75428867 -2.80443311 -1.41821599
12.90678978 -2.75943398 -1.36821604
13.00928974 -2.77193403 -1.36321604
13.10678959 -2.78943300 -1.36321604
13.20678997 -2.79943395 -1.35821605
13.30678940 -2.80943394 -1.35821605
13.37178898 -2.81943393 -1.35821605
-9.55071068 -2.71443391 -1.39321601
9.75678921 -2.74443293 -1.41821599
12.13928890 -2.66443300 -1.38071597
12.23178959 -2.67443395 -1.37821603
12.32178974 -2.68693399 -1.37821603
12.41178894 -2.69943309 -1.37821603
12.50428963 -2.71193409 -1.37321603
12.62678909 -2.72443390 -1.37321603
12.72178936 -2.73943305 -1.36821604
12.81179047 -2.74693394 -1.36821604
-9.53571033 -2.61443400 -1.39321601
9.70178890 -2.63943410 -1.42321599
11.31678963 -2.55443406 -1.39821601
11.51428890 -2.58693409 -1.39321601
11.62429047 -2.59943390 -1.39071596
11.72928905 -2.60693502 -1.38821602
11.81678963 -2.61943293 -1.38821602
11.89928913 -2.62943411 -1.38571596
12.02178955 -2.64693403 -1.38321602
-9.52071095 -2.51693296 -1.39321601
10.52928925 -2.45693302 -1.41321599
10.61928940 -2.46943402 -1.40821600
10.72678947 -2.48443294 -1.40821600
10.82428932 -2.49693394 -1.40821600
10.92928982 -2.51193309 -1.40321600
11.03428936 -2.52693391 -1.40321600
11.13428974 -2.53693295 -1.40071595
11.23928928 -2.54693294 -1.39821601
-9.50321102 -2.41943502 -1.39821601
9.55178928 -2.43443394 -1.42821598
9.60012245 -2.38610005 -1.42821598
9.73928928 -2.38443398 -1.42821598
9.80345535 -2.38443398 -1.42321599
9.91178989 -2.37943411 -1.42321599
10.00678921 -2.39193392 -1.42321599
10.09928894 -2.40443301 -1.41821599
10.21512222 -2.41776705 -1.41821599
10.33678913 -2.43693399 -1.41571605
10.42678928 -2.44443393 -1.41321599
-9.48321056 -2.31943393 -1.39821601
9.57678890 -2.33443403 -1.42821598
-9.46571064 -2.21943402 -1.40071595
-9.45154381 -2.10276794 -1.40321600
-9.43321037 -1.98693395 -1.40321600
-9.41821098 -1.89193296 -1.40821600
-9.41487789 -1.79110003 -1.40821600
-9.46821022 -1.69693398 -1.40821600
-10.13321018 -1.57443297 -1.39821601
-10.07321072 -1.57443297 -1.39821601
-9.99571133 -1.56693399 -1.40071595
-9.90321064 -1.57443297 -1.40321600
-9.77987766 -1.57776701 -1.40321600
-9.69821072 -1.60693395 -1.40571594
-9.59154320 -1.62276602 -1.40821600
-9.51821041 -1.63943398 -1.40821600
-10.13821030 -1.54443395 -1.39821601
-3.17821097 10.10056686 -1.35821605
-3.08098888 10.09945488 -1.36321604
-3.05571103 10.17806625 -1.36196601
5.49678898 13.12056637 -1.36654902
2.38428903 14.14056587 -1.38321602
2.43803906 14.16681671 -1.37946606
-12.12321091 15.82556629 -1.35821605
-6.37571001 -11.60443401 -1.25821602
-7.42820978 -11.28443432 -1.25821602
-7.40821123 -11.14443302 -1.25821602
-7.37821102 -10.96943378 -1.26321602
-2.92321110 -11.01943302 -1.29821599
-2.94321108 -10.92943287 -1.29821599
-2.84821105 -10.87443447 -1.29821599
-0.73321098 -10.89943409 -1.30821598
-7.35821104 -10.81943417 -1.26821601
-2.97571111 -10.80193424 -1.30071604
-7.77821112 -10.68443394 -1.26821601
-7.81321001 -10.64943409 -1.26821601
-7.67321110 -10.56443310 -1.26821601
-7.32821083 -10.64943409 -1.27321601
-2.99321103 -10.60443401 -1.30321598
-7.57321119 -10.46443462 -1.27321601
-3.15071106 -10.47943401 -1.30821598
-3.07571101 -10.50943279 -1.30821598
-3.01821089 -10.53943253 -1.30821598
-0.65821099 -10.54943371 -1.31321597
-7.48321104 -10.36943340 -1.27321601
-3.48154402 -10.40110111 -1.30821598
-3.37821102 -10.39943409 -1.30821598
-3.28321099 -10.42609882 -1.30821598
-3.20321107 -10.44443417 -1.30821598
-2.68571091 -10.38943386 -1.31321597
-2.48571110 -10.40693378 -1.31321597
-2.16321111 -10.40693378 -1.31321597
-2.06987691 -10.42943287 -1.31321597
-1.96821105 -10.43943310 -1.31321597
-1.89071095 -10.43193340 -1.31321597
-7.38820982 -10.27943325 -1.27821600
-7.30820990 -10.20943356 -1.28321600
-0.57071102 -10.21193409 -1.32321596
-0.49321100 -10.20693493 -1.32321596
-7.56821108 -10.05943394 -1.28321600
-7.22320986 -10.12943363 -1.28321600
-9.93321037 -9.88943386 -1.25821602
-9.91821098 -9.77943325 -1.25821602
-9.89321041 -9.66943455 -1.26321602
-9.87321091 -9.55443287 -1.26321602
-9.83321095 -9.41443253 -1.26821601
-9.82321072 -9.31443310 -1.26821601
-9.80821037 -9.21943378 -1.27321601
-9.78821087 -9.10943317 -1.27321601
-9.76821041 -9.01443386 -1.27821600
-9.76821041 -8.92443371 -1.27821600
-9.75571060 -8.79943371 -1.28071594
-9.64821053 -8.45943356 -1.28821599
-9.66821098 -8.40943336 -1.28821599
-9.65821075 -8.32443333 -1.29321599
-9.63821030 -8.22443390 -1.29321599
-9.62321091 -8.12943363 -1.29321599
-9.59821033 -8.02443409 -1.29821599
-9.58821011 -7.90193510 -1.30071604
-9.56821060 -7.76943398 -1.30321598
-9.53821087 -7.65943289 -1.30321598
-9.55321026 -7.57943392 -1.30821598
-9.67321110 -7.46943378 -1.30821598
-9.60321140 -7.51193285 -1.30821598
-13.09821033 -7.40443277 -1.25821602
-10.06320953 -7.35443401 -1.30321598
-9.97821045 -7.37443399 -1.30321598
-9.87821102 -7.40943289 -1.30321598
-9.77154446 -7.43443298 -1.30821598
-13.07321072 -7.32443285 -1.25821602
-10.37320995 -7.25443411 -1.30321598
-10.28821087 -7.27943277 -1.30321598
-10.18154335 -7.30943298 -1.30321598
-10.10321045 -7.33943415 -1.30321598
-13.06821060 -7.21443415 -1.26071596
-10.94821072 -7.15443277 -1.29321599
-10.87570953 -7.16443300 -1.29321599
-10.78320980 -7.17693377 -1.29821599
-10.68571091 -7.18943405 -1.29821599
-10.59321117 -7.20693302 -1.29821599
-10.48320961 -7.22776699 -1.29821599
-13.05821037 -7.11443281 -1.26321602
-11.78321075 -7.09443378 -1.28321600
-11.67987823 -7.10610008 -1.28321600
-11.58321095 -7.11943293 -1.28321600
-11.49820995 -7.12693310 -1.28821599
-11.39321041 -7.12943411 -1.28821599
-11.28320980 -7.13193417 -1.28821599
-11.17071056 -7.13193417 -1.29321599
-11.07571125 -7.13943386 -1.29321599
-10.99821091 -7.14943409 -1.29321599
-13.04571056 -7.00443411 -1.26321602
-13.01821041 -6.89443398 -1.26821601
-12.98321056 -6.78443289 -1.26821601
-12.98821068 -6.69943285 -1.26821601
-12.96821022 -6.59443378 -1.27321601
-12.95821095 -6.49193382 -1.27321601
17.48678970 -3.35443401 -1.27321601
17.58179092 -3.36443305 -1.26821601
17.70178986 -3.38443398 -1.26821601
17.81179047 -3.40443301 -1.26321602
17.91679001 -3.41443300 -1.26321602
18.03178787 -3.42943406 -1.25821602
18.13179016 -3.43943405 -1.25821602
16.78178978 -3.26443410 -1.28821599
16.87678909 -3.26943398 -1.28321600
16.98178864 -3.28943300 -1.28321600
17.07178879 -3.29943395 -1.27821600
17.17678833 -3.31443405 -1.27821600
17.28178787 -3.32943296 -1.27321601
17.38179016 -3.33943391 -1.27321601
15.74178982 -3.15943289 -1.30821598
15.91178989 -3.15443301 -1.30321598
16.04179001 -3.16943407 -1.30321598
16.12678909 -3.17943406 -1.29821599
16.22179031 -3.19443393 -1.29821599
16.31179047 -3.19943309 -1.29821599
16.41178894 -3.21943402 -1.29321599
16.50178909 -3.22943401 -1.29321599
16.59679031 -3.23443389 -1.28821599
16.68178940 -3.24943399 -1.28821599
15.22678947 -3.06693411 -1.31821597
15.34678936 -3.07943296 -1.31821597
15.42178917 -3.08943391 -1.31321597
15.51678944 -3.10443401 -1.31321597
15.61178970 -3.11443305 -1.31321597
15.78678894 -3.14443398 -1.30821598
14.42678928 -2.95943403 -1.33571601
14.54178905 -2.97443390 -1.33321595
14.62178898 -2.98443389 -1.33321595
14.70178890 -2.99443293 -1.32821596
14.81429005 -3.00943398 -1.32821596
14.93679047 -3.02443409 -1.32321596
15.01178932 -3.03443289 -1.32321596
15.09678936 -3.04943395 -1.32321596
13.65678978 -2.85943389 -1.35321605
13.72678947 -2.86943293 -1.34821606
13.79678917 -2.87443399 -1.34821606
13.90928936 -2.89443398 -1.34571600
14.01178932 -2.90443301 -1.34321594
14.11928940 -2.91693401 -1.34321594
14.23178959 -2.92943406 -1.33821595
14.31179047 -2.94443393 -1.33821595
13.44678974 -2.83443403 -1.35321605
13.50678921 -2.83443403 -1.35321605
13.57678890 -2.84943390 -1.35321605
5.65678883 -1.86943305 -1.25821602
5.69478893 -1.79743302 -1.25821602
5.75345612 -1.72276700 -1.26154900
5.80845594 -1.68276799 -1.26321602
5.84678888 -1.63693297 -1.26321602
5.91379023 -1.59843302 -1.26321602
6.00012302 -1.56110096 -1.26321602
6.03928900 -1.49693406 -1.26321602
6.14928913 -1.49693406 -1.26321602
6.21928978 -1.48568404 -1.25821602
6.29929018 -1.48693395 -1.25821602
6.37178898 -1.49443305 -1.25821602
6.08178902 -1.44943297 -1.26321602
-3.13321090 10.29056644 -1.35321605
-3.11821103 10.26556587 -1.35321605
7.57678890 13.50556564 -1.28821599
7.73678923 13.54556656 -1.28321600
7.77179003 13.54556656 -1.28321600
7.69512177 13.56389999 -1.28321600
19.41679001 13.74556637 -1.26821601
19.48178864 13.72056580 -1.26321602
19.59679031 13.72056580 -1.26321602
19.69178772 13.70556641 -1.26321602
19.79679108 13.69556618 -1.25821602
19.88679123 13.68056679 -1.25821602
18.88679123 13.82556629 -1.27821600
19.01929092 13.80806637 -1.27571595
19.13179016 13.78056622 -1.27321601
19.20178986 13.76056671 -1.27321601
19.32678986 13.76056671 -1.26821601
18.51179123 13.93056583 -1.28321600
18.63428879 13.88556671 -1.28321600
18.74678802 13.86556625 -1.27821600
18.82678986 13.85056686 -1.27821600
18.34178925 14.02056694 -1.28821599
18.39429092 13.97306633 -1.28821599
18.26678848 14.08056641 -1.28821599
18.30429077 14.09556580 -1.28821599
18.22345352 14.19723320 -1.28821599
18.17179108 14.28806686 -1.28821599
18.14345551 14.39056587 -1.28821599
18.11928940 14.49556637 -1.28821599
18.11178970 14.60556602 -1.28821599
18.11679077 14.72306633 -1.28821599
18.11178970 14.81056595 -1.28321600
18.12929153 14.91306686 -1.28321600
18.13179016 15.00806618 -1.28321600
18.15179062 15.11056614 -1.28321600
18.17929077 15.21806622 -1.27821600
18.20178986 15.30056667 -1.27821600
18.23178864 15.36556625 -1.27821600
18.32178879 15.45556641 -1.27321601
18.38179016 15.53556633 -1.27321601
-13.38321018 15.81556606 -1.33321595
-13.38654327 15.90556526 -1.32988298
-13.31320953 15.95056629 -1.33321595
-13.17321110 15.99056625 -1.33321595
-12.24321079 15.95056629 -1.35321605
-12.19821072 16.00806618 -1.35321605
-12.96321011 16.10056686 -1.33571601
-12.31320953 16.08056641 -1.34821606
-12.19321060 16.09556580 -1.35321605
-12.98821068 16.18556595 -1.33321595
-13.09071064 16.32056808 -1.33071601
-12.21321106 16.32556534 -1.34821606
-12.51821041 16.40556717 -1.34321594
-12.31320953 16.35556602 -1.34321594
-12.48571110 16.58556747 -1.33821595
10.74178982 22.64056587 -1.29321599
10.82012272 22.61223221 -1.29321599
10.90678978 22.60056686 -1.29321599
7.71679020 23.09056473 -1.31821597
-0.32321101 -17.45443344 -1.15821600
-0.49321100 -15.16943455 -1.20821595
-0.44321099 -15.14443302 -1.20821595
-0.36821100 -15.14443302 -1.20821595
-0.13321100 -14.81443310 -1.21821594
-0.05821100 -14.79193401 -1.21821594
-9.81571102 -13.79193401 -1.18071604
-9.80321026 -13.58943462 -1.18321598
-10.58821106 -13.50443363 -1.17821598
-9.77821064 -13.43443394 -1.18821597
-10.55821037 -13.33443356 -1.18321598
-9.75321102 -13.28443432 -1.19321597
-1.68821096 -13.25443363 -1.24821603
-1.57321095 -13.25943279 -1.24821603
-1.48321104 -13.27193356 -1.24821603
-1.39321101 -13.27693462 -1.24821603
-1.28154397 -13.29276752 -1.24821603
-1.16821098 -13.29943371 -1.24821603
-1.07571101 -13.30943394 -1.24821603
-10.53321075 -13.19443417 -1.18321598
-2.18154407 -13.17943287 -1.24821603
-2.07071090 -13.20943356 -1.24821603
-1.97571099 -13.19943333 -1.24821603
-1.88571095 -13.21193409 -1.24821603
-1.77821100 -13.23943424 -1.24821603
-1.64321101 -13.24943447 -1.24821603
-0.99821103 -13.21443462 -1.25321603
-9.72821045 -13.12443447 -1.19321597
-2.26321101 -13.13443279 -1.25321603
-10.50321102 -13.03943253 -1.18821597
-9.70821095 -12.97443295 -1.19821596
-10.47321033 -12.87943363 -1.19321597
-4.56321001 -12.86443424 -1.24321604
-4.47320986 -12.88193417 -1.24571598
-4.38071108 -12.88443279 -1.24821603
-9.65821075 -12.78943253 -1.20321596
-5.38321114 -12.78943253 -1.24321604
-5.28154421 -12.77943516 -1.24321604
-5.16321087 -12.78943539 -1.24321604
-5.09321117 -12.78943253 -1.24321604
-4.98071098 -12.81943417 -1.24321604
-4.88821077 -12.82693386 -1.24321604
-4.79571104 -12.83943462 -1.24321604
-4.67654419 -12.84610081 -1.24321604
-4.28321123 -12.79443455 -1.24821603
-10.44321060 -12.73443317 -1.19321597
-9.64321041 -12.65443325 -1.20321596
-5.96321106 -12.70943356 -1.23821604
-5.86821079 -12.71443462 -1.23821604
-5.77070999 -12.71443462 -1.23821604
-5.67821121 -12.73443317 -1.24071598
-5.58321095 -12.73693371 -1.24321604
-5.49070978 -12.74943447 -1.24321604
-5.01321077 -12.70443439 -1.24821603
-7.03321123 -12.55943394 -1.23321605
-6.98821115 -12.56443310 -1.23321605
-5.36821079 -12.59943295 -1.24821603
-10.39821053 -12.54443455 -1.19821596
-9.63321018 -12.52443409 -1.20821595
-7.55571079 -12.52443409 -1.22821605
-7.47320986 -12.50943279 -1.22821605
-7.40071106 -12.51943302 -1.23321605
-7.27987719 -12.53943253 -1.23321605
-7.15571022 -12.54443264 -1.23321605
-7.07821083 -12.54943371 -1.23321605
-6.91321087 -12.50943279 -1.23821604
-10.38321018 -12.42443371 -1.20321596
-9.60821056 -12.38443279 -1.21321595
-10.35321045 -12.27943325 -1.20321596
-7.55320978 -12.34943295 -1.23321605
-9.58821106 -12.24943447 -1.21321595
-7.53821087 -12.19943333 -1.23821604
-10.33821106 -12.14943409 -1.20821595
-9.56821060 -12.10943317 -1.21821594
-10.30821037 -12.00443363 -1.21321595
-9.55321026 -11.97443295 -1.21821594
-7.52321100 -12.04443455 -1.23821604
-10.28321075 -11.87443447 -1.21321595
-7.50321102 -11.88943386 -1.24321604
-9.52821064 -11.83443356 -1.22321606
-10.26321030 -11.74443340 -1.21821594
-9.50821018 -11.70943356 -1.22821605
-7.47820997 -11.71943378 -1.24821603
-10.23321056 -11.60443401 -1.21821594
-9.48821068 -11.56943417 -1.22821605
-7.45821095 -11.57443333 -1.24821603
-10.21321106 -11.47943401 -1.22321606
-9.46821022 -11.43943310 -1.23321605
-7.44321108 -11.42443371 -1.25321603
-10.18820953 -11.34443378 -1.22321606
-9.45321083 -11.31943417 -1.23321605
-10.16821098 -11.21443462 -1.22821605
-9.43321037 -11.18943310 -1.23821604
-10.14321041 -11.08943462 -1.23321605
-9.41821098 -11.06443310 -1.23821604
-10.12321091 -10.96943378 -1.23321605
-10.10321045 -10.84443378 -1.23821604
-10.07821083 -10.71943378 -1.23821604
-10.05321026 -10.58943462 -1.24321604
-10.03321075 -10.46443462 -1.24321604
-10.01321030 -10.35443401 -1.24821603
-9.97821045 -10.21443462 -1.24821603
-9.96821022 -10.11443424 -1.25321603
-9.95321083 -10.00443363 -1.25321603
-13.26821041 -8.58943367 -1.23321605
-13.25821018 -8.50943375 -1.23321605
-13.24321079 -8.42443371 -1.23821604
-13.23321056 -8.33943367 -1.23821604
-13.21821022 -8.25943375 -1.23821604
-12.94321060 -8.30443382 -1.24321604
-13.20821095 -8.17943382 -1.24321604
-13.19321060 -8.09943390 -1.24321604
-13.18820953 -8.02443409 -1.24321604
-13.16321087 -7.89943409 -1.24821603
-13.14821053 -7.78443289 -1.24821603
-13.14821053 -7.71943378 -1.24821603
-13.11571026 -7.58693409 -1.25321603
-13.10321045 -7.47443390 -1.25321603
-20.03321075 -5.48443413 -1.15821600
-20.02321243 -5.41443300 -1.15821600
-20.00320816 -5.30443382 -1.15821600
-19.98820877 -5.20443296 -1.15821600
-19.98571014 -5.11193419 -1.16321599
-19.98820877 -5.01443386 -1.16321599
-20.00154495 -4.90276623 -1.16321599
-20.19321060 -4.75943422 -1.16321599
-20.08071136 -4.79443407 -1.16321599
-20.47320938 -4.66943407 -1.15821600
-20.39321136 -4.68443394 -1.15821600
-20.28321075 -4.71693277 -1.16071606
-20.55321121 -4.61943293 -1.15821600
5.24178886 -4.38443279 -1.15821600
5.25678921 -4.30443382 -1.16321599
5.26428890 -4.21443415 -1.16571605
5.27679014 -4.11443377 -1.16821599
5.29429007 -4.00443411 -1.17321599
5.31178999 -3.90193391 -1.17821598
21.28678894 -3.85443401 -1.18821597
21.44178772 -3.87443399 -1.18321598
21.59178925 -3.89443398 -1.18321598
21.71178818 -3.89943409 -1.17821598
21.77178955 -3.86943293 -1.17821598
5.32678890 -3.84443402 -1.17821598
20.58678818 -3.75943398 -1.20321596
20.72678757 -3.78443289 -1.20321596
20.85678864 -3.79443407 -1.19821596
20.99678802 -3.81443405 -1.19321597
21.14678955 -3.83443403 -1.19321597
5.32845592 -3.70943403 -1.18654895
19.79679108 -3.65943289 -1.22321606
19.91679001 -3.66943407 -1.21821594
20.02679062 -3.67943406 -1.21821594
20.17179108 -3.70443296 -1.21321595
20.31179047 -3.72443390 -1.20821595
20.44678879 -3.73943305 -1.20821595
5.35178900 -3.59943390 -1.19071603
5.38178921 -3.56943393 -1.19321597
19.04179001 -3.55443406 -1.23821604
19.16178894 -3.56943393 -1.23321605
19.28678894 -3.58943391 -1.23321605
19.40179062 -3.60443401 -1.22821605
19.53678894 -3.62443399 -1.22821605
19.65678787 -3.63443398 -1.22321606
5.37178898 -3.47443390 -1.19321597
18.24179077 -3.45443296 -1.25321603
18.35178757 -3.46443391 -1.25321603
18.47179031 -3.48943305 -1.24821603
18.58179092 -3.49943399 -1.24821603
18.69178772 -3.51443410 -1.24321604
18.81678772 -3.53443289 -1.24321604
18.91679001 -3.53943300 -1.23821604
5.38178921 -3.40193391 -1.19821596
5.40012312 -3.29276800 -1.20154905
5.41678905 -3.17193294 -1.20821595
5.42178917 -3.08943391 -1.21321595
-19.68321228 -2.96443391 -1.19321597
5.43678999 -3.00443292 -1.21321595
-19.66820908 -2.89943409 -1.19321597
5.44428921 -2.87943411 -1.21821594
-19.64321136 -2.82943296 -1.19321597
-19.62821198 -2.76943398 -1.19321597
5.45678902 -2.78943300 -1.22321606
-19.61320877 -2.70443296 -1.19321597
5.47929001 -2.72193408 -1.22571599
-19.60321045 -2.61443400 -1.19821596
5.48512316 -2.59610009 -1.22988296
-19.58320999 -2.49443293 -1.19821596
5.49928999 -2.48943400 -1.23321605
-19.57571030 -2.37943411 -1.19821596
5.50678921 -2.39943409 -1.23821604
-19.56320953 -2.29443407 -1.19821596
5.52845621 -2.30610108 -1.24321604
-19.57070923 -2.21193409 -1.20071602
5.54678917 -2.21943402 -1.24571598
-19.59070969 -2.11193395 -1.20321596
5.55178881 -2.14943409 -1.24821603
5.57512188 -2.09943390 -1.24988198
-19.67570877 -1.98443305 -1.20071602
-19.62321091 -2.04443407 -1.20321596
5.60345602 -2.00443292 -1.25321603
-20.11320877 -1.86443305 -1.19321597
-19.98571014 -1.89693403 -1.19571602
-19.85321045 -1.92943394 -1.19821596
-19.78321075 -1.94443405 -1.19821596
5.64012289 -1.93276799 -1.25321603
-20.47821045 -1.76943302 -1.18571603
-20.34321213 -1.79943395 -1.18821597
-20.27820969 -1.82443297 -1.18821597
-20.19321060 -1.84443402 -1.19321597
-20.85321045 -1.66443300 -1.17821598
-20.74821091 -1.68443406 -1.17821598
-20.68820953 -1.70943403 -1.18321598
-20.60821152 -1.73443401 -1.18321598
7.16178894 -1.71943402 -1.22821605
7.17678881 -1.65443301 -1.22821605
-21.21321106 -1.57943296 -1.17321599
-21.07820892 -1.61443400 -1.17321599
-20.93820953 -1.63943398 -1.17821598
6.65178919 -1.59443402 -1.24321604
6.82678890 -1.56443405 -1.24321604
6.92678881 -1.58943403 -1.23821604
7.19178915 -1.63943398 -1.22821605
-21.68321228 -1.46943402 -1.16321599
-21.57820892 -1.48943305 -1.16321599
-21.49320984 -1.51943398 -1.16821599
-21.41820908 -1.54443395 -1.16821599
-21.27321243 -1.54443395 -1.16821599
6.35178900 -1.50943398 -1.25321603
6.42178917 -1.51693404 -1.25321603
6.52054024 -1.54068398 -1.25071597
6.59178877 -1.54943395 -1.24821603
6.74678898 -1.52943301 -1.24321604
6.82845592 -1.54276705 -1.24321604
6.91178894 -1.52943301 -1.23821604
-21.95320892 -1.39443398 -1.15821600
-21.75321198 -1.37943399 -1.16321599
-21.68321228 -1.41943395 -1.16321599
-21.95071030 -1.31443298 -1.15821600
-21.96321106 -1.20193398 -1.15821600
-21.96821213 -1.11443305 -1.15821600
-21.57820892 -0.91943401 -1.16821599
-21.55821228 -0.80443400 -1.16821599
-21.46821213 -0.82943398 -1.17321599
-21.49320984 -0.72443402 -1.17321599
-21.41070938 -0.61443299 -1.17321599
9.22178936 -0.59943402 -1.20321596
-3.15571094 10.09306622 -1.23821604
-3.08508611 10.11306667 -1.24384105
-3.07321095 10.19181633 -1.23946595
-3.11321092 10.26806641 -1.23321605
5.43178892 13.08556747 -1.19321597
5.49012280 13.10890007 -1.18821597
22.66679001 13.43556595 -1.19821596
22.74678802 13.41056633 -1.19821596
22.89178848 13.39556694 -1.19321597
23.04679108 13.39056587 -1.18821597
23.18178940 13.38056564 -1.18821597
21.33678818 13.53556633 -1.22821605
21.45679092 13.52556610 -1.22321606
21.56179047 13.51056671 -1.22321606
21.68178940 13.49556637 -1.21821594
21.83678818 13.49556637 -1.21321595
21.92179108 13.47056580 -1.21321595
22.75178909 13.51556587 -1.19321597
20.30678940 13.63556671 -1.24821603
20.40678787 13.62056637 -1.24821603
20.51179123 13.60556602 -1.24321604
20.64178848 13.60556602 -1.24321604
20.73178864 13.58556747 -1.23821604
20.84178925 13.57056618 -1.23821604
20.95679092 13.56056595 -1.23321605
21.08179092 13.55056572 -1.23321605
21.23678970 13.55556679 -1.22821605
22.37178802 13.55556679 -1.20321596
22.72179031 13.58306599 -1.19571602
19.96178818 13.66056633 -1.25321603
20.08678818 13.65556622 -1.25321603
20.20679092 13.65056610 -1.24821603
2.34678888 14.08056641 -1.21321595
2.41678905 14.17456627 -1.20821595
1.11178899 17.02556610 -1.25321603
1.21178901 -21.55943298 -1.06321597
1.31178904 -21.55943298 -1.06321597
1.40428901 -21.57193375 -1.06321597
1.53178895 -21.59193420 -1.05821598
1.62678897 -21.60443497 -1.05821598
1.71928895 -21.61943436 -1.05821598
1.81678903 -21.62443542 -1.05821598
1.91178894 -21.64193344 -1.05821598
0.41678900 -21.45443344 -1.06321597
0.48178899 -21.45443344 -1.06321597
0.61178899 -21.48443222 -1.06321597
0.70428902 -21.49193573 -1.06321597
0.83428901 -21.50693512 -1.06321597
0.92678899 -21.52443314 -1.06321597
1.02178895 -21.53693390 -1.06321597
1.11678898 -21.54943466 -1.06321597
5.20178890 -21.46943283 -1.05821598
-0.18071100 -21.37693405 -1.06321597
-0.08321100 -21.39443207 -1.06321597
0.00928900 -21.39943314 -1.06321597
0.13428900 -21.40943527 -1.06321597
0.23178899 -21.42443466 -1.06321597
0.32678899 -21.43443298 -1.06321597
0.54678899 -21.44443512 -1.06321597
5.25678921 -21.41943359 -1.05821598
-1.15321100 -21.25443268 -1.06821597
-1.08821106 -21.26443481 -1.06821597
-0.26821101 -21.32443237 -1.06821597
-1.33821106 -21.20943451 -1.06821597
-1.27321100 -21.23943329 -1.06821597
-1.20821095 -21.24443436 -1.06821597
1.98678899 -21.10943222 -1.07321596
2.05178905 -21.04943466 -1.07321596
2.11178899 -21.01443481 -1.07321596
7.35679007 -20.59943390 -1.06821597
7.40178919 -20.49443436 -1.06821597
7.50178909 -20.50193405 -1.06821597
7.71678877 -20.46443558 -1.06821597
7.81679010 -20.47943497 -1.06821597
7.92678881 -20.53943253 -1.06321597
7.61428881 -20.44443512 -1.06821597
-0.40321100 -17.48443222 -1.15321600
-20.47821045 -8.40943336 -1.10821605
-20.47071075 -8.29693317 -1.11321604
-20.44321060 -8.16943359 -1.11321604
-20.43321228 -8.08943367 -1.11821604
-20.42321014 -8.00943375 -1.11821604
-20.41571045 -7.89693403 -1.11821604
-20.41820908 -7.79443407 -1.11821604
-20.47320938 -7.68943405 -1.11821604
-20.41820908 -7.72943401 -1.12321603
-20.58071136 -7.59193277 -1.11821604
-20.48321152 -7.62943411 -1.12321603
-20.96321106 -7.46943378 -1.11321604
-20.90320969 -7.48943281 -1.11321604
-20.78070831 -7.51693296 -1.11821604
-20.66820908 -7.54943419 -1.11821604
-21.33821106 -7.35943413 -1.10821605
-21.27321243 -7.37943411 -1.10821605
-21.20320892 -7.40943289 -1.10821605
-21.08071136 -7.43443394 -1.11321604
-21.73820877 -7.25943422 -1.10321605
-21.65320969 -7.27443409 -1.10321605
-21.57321167 -7.29443407 -1.10321605
-21.49821091 -7.31443405 -1.10321605
-21.38320923 -7.31443405 -1.10821605
-22.14821243 -7.15943289 -1.09321594
-22.06320953 -7.17443419 -1.09821606
-21.97320938 -7.18943405 -1.09821606
-21.89821243 -7.21443415 -1.09821606
-21.81320953 -7.23443413 -1.09821606
-22.26821136 -7.08943415 -1.09321594
-22.22320938 -7.12943411 -1.09321594
-20.05821228 -5.68443394 -1.15321600
4.89178896 -5.71693277 -1.10321605
-20.06320953 -5.62443399 -1.15321600
4.93345594 -5.60276699 -1.10988200
-20.04320908 -5.54943419 -1.15321600
4.99178886 -5.49943399 -1.11321604
5.04929018 -5.43943310 -1.11321604
5.10678911 -5.37943506 -1.11821604
5.15178919 -5.33943415 -1.11821604
5.16679001 -4.93943405 -1.13321602
5.17178917 -4.87443399 -1.13821602
-20.75820923 -4.57443285 -1.15321600
-20.68820953 -4.60443401 -1.15321600
-21.24320984 -4.45443296 -1.14321601
-21.16820908 -4.47443390 -1.14321601
-21.08320999 -4.49443293 -1.14821601
