-8.27437401 -0.42350501 -1.97761798
-8.17937469 -0.40100399 -1.97761798
-8.06604004 -0.39517099 -1.97261798
-7.97603989 -0.42517099 -1.97261798
-7.87937403 -0.45683801 -1.97261798
-7.71437407 -0.47850499 -1.96761799
-7.65937424 -0.46850401 -1.96761799
-10.49270821 -0.32850501 -2.01761794
-8.72437477 -0.35350499 -1.98261797
-8.65687370 -0.35850501 -1.98261797
-8.56937408 -0.36350501 -1.98261797
-8.49937439 -0.35850501 -1.98261797
-8.35687447 -0.36600399 -1.97761798
-8.23937416 -0.36350501 -1.97761798
-10.47937393 -0.22850500 -2.01761794
-10.46437454 -0.14850500 -2.01511788
-10.72187424 -0.01350500 -2.01761794
-10.36937523 -0.01850500 -2.01261806
-10.69937515 0.05649500 -2.01761794
-10.31437492 0.06649500 -2.00761795
10.29062653 0.08649500 -1.96261799
10.33062553 0.02649500 -1.96261799
-10.63437462 0.13149500 -2.01761794
-10.58937454 0.19149500 -2.01261806
-10.26437378 0.16816200 -2.00761795
-10.53937531 0.27399501 -2.01261806
-10.21687508 0.28149599 -2.00511789
-10.58437347 0.39649501 -2.01261806
-10.48312378 0.39024499 -2.00886798
-10.38937378 0.40649599 -2.00761795
-10.27604103 0.40149501 -2.00595093
-10.19937515 0.35899499 -2.00261807
-10.45437431 0.46149501 -2.00761795
-10.53937531 0.61649501 -2.00761795
-10.41770744 0.56482899 -2.00761795
-10.91437340 0.71149498 -2.01261806
-10.84687424 0.69399500 -2.01261806
-10.73937416 0.66649503 -2.01261806
-10.65770721 0.63982898 -2.00928402
-10.44437408 0.62149501 -2.00761795
-10.92437363 0.75649500 -2.01261806
-10.69437408 0.72149497 -2.00761795
-10.88770676 0.86149502 -2.01261806
-10.86937523 0.95399499 -2.01261806
-10.31437492 1.37649500 -1.99511802
-10.27437401 1.36399496 -1.99261796
-10.32270813 1.46982896 -1.99261796
-10.34187317 1.57024503 -1.99261796
-10.36770821 1.66982806 -1.99261796
-10.40937424 1.80649495 -1.99261796
-10.39104080 1.75149500 -1.99261796
-10.43812370 1.87274504 -1.99261796
-10.47270584 1.96482801 -1.99261796
-10.47187424 2.07149601 -1.99261796
-10.53437424 2.19899511 -1.99261796
-10.49187469 2.15649605 -1.99261796
-11.15937424 2.31149507 -2.00261807
-11.06187439 2.30149508 -2.00261807
-10.95187378 2.27899599 -2.00011802
-10.84437370 2.26149511 -1.99761796
-10.73187447 2.24399495 -1.99761796
-10.65937424 2.22649503 -1.99261796
-10.59937477 2.22149491 -1.99261796
-11.76437378 2.41149497 -2.01761794
-11.66687393 2.39649510 -2.01511788
-11.57437515 2.38149500 -2.01261806
-11.47687531 2.37149501 -2.01261806
-11.35937500 2.34649491 -2.00761795
-11.24187469 2.32649589 -2.00761795
-12.22687531 2.46149492 -2.02761793
-12.10937500 2.45149493 -2.02261806
-12.02937508 2.44649601 -2.02261806
-11.95437431 2.44149494 -2.02261806
-11.86687469 2.42399502 -2.01761794
-2.95562410 10.28274536 -1.94261801
-2.87508893 10.30078125 -1.94190300
-2.82937407 10.32399559 -1.94011796
-2.75255609 10.36467743 -1.93761802
-2.70937395 10.47316170 -1.94095099
-2.69937396 10.45274544 -1.93886805
-2.72937393 10.56149483 -1.94428396
7.07062578 -1.05850506 -1.92761803
7.13562584 -1.03350496 -1.92761803
5.76062584 13.38649559 -1.87761796
5.75562620 13.44316196 -1.88095105
7.97562599 14.01649475 -1.92261803
8.00562572 14.01649475 -1.92261803
7.88562584 14.05149555 -1.92261803
7.93395901 14.03816223 -1.92261803
2.58062601 14.23149490 -1.86761796
2.63762593 14.26749516 -1.86761796
3.17562604 16.11149597 -1.91261804
3.20562601 16.09149551 -1.91261804
2.05562592 16.20649529 -1.91261804
2.13762593 16.19749641 -1.91261804
2.24062610 16.18049431 -1.91261804
2.34362602 16.17149544 -1.91261804
2.44662595 16.16249657 -1.91261804
2.55062604 16.15849686 -1.91261804
2.64562607 16.16024590 -1.91261804
2.74062610 16.15849495 -1.91261804
2.84662604 16.16549492 -1.91261804
2.92062593 16.15649605 -1.91261804
3.07562590 16.15149498 -1.91261804
3.12812591 16.13774490 -1.91261804
3.27062607 16.15482903 -1.91428399
3.34562612 16.14774513 -1.91761804
3.43862605 16.13649559 -1.91761804
3.53562593 16.13649559 -1.91761804
3.63662601 16.14649582 -1.91761804
3.71562600 16.14649582 -1.91761804
1.14562595 16.30949593 -1.91261804
1.24862599 16.30149460 -1.91261804
1.34312606 16.28399658 -1.91261804
1.43662596 16.28549576 -1.91261804
1.53962600 16.27049446 -1.91261804
1.64262605 16.25449562 -1.91261804
1.74562597 16.24249649 -1.91261804
1.84962595 16.23149490 -1.91261804
1.94187605 16.22399521 -1.91261804
2.00562596 16.22149467 -1.91261804
0.49062601 16.41649628 -1.91761804
0.54562598 16.38149643 -1.91636801
0.63862598 16.38749504 -1.91761804
0.74562597 16.37249565 -1.91361797
0.84062600 16.35774612 -1.91261804
0.93562597 16.33949471 -1.91261804
1.04062605 16.32549477 -1.91261804
4.04562616 16.39149475 -1.92261803
0.46562600 16.43149567 -1.91761804
0.44062600 16.53649521 -1.91761804
-2.94437408 10.31149483 -1.82261801
-2.85151696 10.29720974 -1.81761801
-2.79437399 10.31149483 -1.81761801
-3.02437401 10.34649563 -1.82261801
-2.97937393 10.32149506 -1.82261801
-2.74755597 10.36194992 -1.81761801
-2.71062398 10.45274544 -1.81761801
-2.70437407 10.46899509 -1.81761801
-2.72104096 10.53982925 -1.81928396
-2.82687402 10.69149590 -1.82261801
-2.78437400 10.62649536 -1.82261801
-2.82937407 10.72149563 -1.82261801
7.05562496 -22.18850327 -1.69761801
7.16062593 -22.19850349 -1.69761801
7.22562599 -22.19850349 -1.69761801
7.33062601 -22.20350456 -1.69761801
7.43562603 -22.21350479 -1.69761801
7.50062609 -22.18350410 -1.69761801
5.46562576 -22.08350372 -1.69761801
5.52562618 -22.08850479 -1.69761801
5.63062620 -22.10850525 -1.69761801
5.73062611 -22.11350441 -1.69761801
5.83312607 -22.10850525 -1.69761801
5.93062592 -22.11850357 -1.69761801
6.03312588 -22.12100410 -1.69761801
6.13562584 -22.12850380 -1.69761801
6.23562622 -22.13850403 -1.69761801
6.34062576 -22.14850426 -1.69761801
6.44062614 -22.14350510 -1.69761801
6.54062605 -22.15350342 -1.69761801
6.64562607 -22.16350555 -1.69761801
6.75062609 -22.16350365 -1.69761801
6.85062599 -22.17600441 -1.69761801
6.95062590 -22.17850494 -1.69761801
4.75812578 -22.04350471 -1.69761801
4.85562611 -22.04850388 -1.69761801
4.95562601 -22.05350494 -1.69761801
5.05562592 -22.06350327 -1.69761801
5.15812588 -22.06350327 -1.69761801
5.25562620 -22.06850433 -1.69761801
5.35812616 -22.07350540 -1.69761801
4.65062618 -21.96850395 -1.69761801
7.48562622 -21.82850456 -1.69761801
7.55062580 -21.79350471 -1.69761801
8.15562630 -21.79350471 -1.69761801
8.23062515 -21.80350494 -1.69761801
8.33562660 -21.81100464 -1.69761801
8.44062614 -21.81850433 -1.69761801
8.54062653 -21.82350349 -1.69761801
8.65062523 -21.81350327 -1.69761801
8.75312614 -21.82850266 -1.69761801
8.86062622 -21.84350395 -1.69761801
8.92562580 -21.83850479 -1.69761801
9.03312588 -21.84600449 -1.69761801
9.13562584 -21.82850456 -1.69761801
9.23562622 -21.82350540 -1.69761801
9.34562492 -21.83350372 -1.69761801
9.45062637 -21.83100510 -1.69761801
9.55562592 -21.85350418 -1.69761801
9.65812492 -21.84600449 -1.69761801
9.75562668 -21.80350494 -1.69761801
7.60062599 -21.72850418 -1.69761801
7.94062614 -21.73350334 -1.69761801
8.04562569 -21.73600388 -1.69761801
9.79062653 -21.68350410 -1.69761801
7.84562588 -21.61850357 -1.69761801
4.07562590 -21.48350334 -1.69761801
4.23812580 -21.50100327 -1.69761801
4.33562613 -21.50850487 -1.69761801
9.80562592 -21.50350380 -1.69761801
2.53062606 -21.38850403 -1.69761801
2.62812591 -21.38850403 -1.69761801
2.75562596 -21.38850403 -1.69761801
2.85062599 -21.40350342 -1.69761801
2.94812608 -21.40850449 -1.69761801
3.04562593 -21.40350342 -1.69761801
3.14062595 -21.41100311 -1.69761801
3.23562598 -21.39350510 -1.69761801
3.33062601 -21.44100380 -1.69761801
3.46062589 -21.44350433 -1.69761801
3.55562592 -21.45850372 -1.69761801
3.65312600 -21.45100403 -1.69761801
3.75562596 -21.46850395 -1.69761801
3.84812593 -21.47100449 -1.69761801
3.94562602 -21.46850395 -1.69761801
4.01062584 -21.47350502 -1.69761801
4.13562584 -21.47850418 -1.69761801
7.59562588 -21.39850426 -1.69761801
2.27062607 -21.36350441 -1.69761801
2.33562589 -21.35850334 -1.69761801
2.43312597 -21.37100410 -1.69761801
9.81562614 -21.31350327 -1.69761801
7.60062599 -21.11350441 -1.69761801
9.82562637 -21.10850334 -1.69761801
4.34562588 -21.06850433 -1.69761801
7.65062618 -21.06850433 -1.69761801
4.39062595 -20.88850403 -1.69761801
9.84062576 -20.93350410 -1.69761801
4.45562601 -20.84850502 -1.69761801
9.85062599 -20.75350380 -1.69761801
9.75562668 -20.01850510 -1.69761801
9.85062599 -20.00350571 -1.69761801
10.25062561 -19.99850464 -1.69761801
9.67562485 -19.97850418 -1.69761801
9.93562508 -19.94850349 -1.69761801
10.03312492 -19.95600510 -1.69761801
10.13562584 -19.95850372 -1.69761801
10.30562592 -19.87850380 -1.69761801
1.39562595 -15.34350395 -1.69761801
1.56812596 -15.14350510 -1.69761801
1.64062595 -15.13350487 -1.69761801
1.34062600 -15.06850433 -1.69761801
1.83062601 -14.81350327 -1.69761801
1.87562597 -14.77850342 -1.69761801
1.94812596 -14.74850464 -1.69761801
-7.86937380 -14.41350365 -1.69761801
-7.88437414 -14.30350494 -1.69761801
-7.87437391 -14.14850426 -1.69761801
-7.85937500 -13.98350334 -1.69761801
-7.83437395 -13.80350494 -1.69761801
-7.79937410 -13.59850502 -1.69761801
-7.80437422 -13.47850418 -1.69761801
-7.78937387 -13.32350254 -1.69761801
-0.21437401 -13.28350353 -1.69761801
-0.12437400 -13.28850365 -1.69761801
-0.05437400 -13.29100418 -1.69761801
0.03812600 -13.29850388 -1.69761801
0.12562600 -13.29600525 -1.69761801
0.24062601 -13.31183815 -1.69761801
0.35312599 -13.31350327 -1.69761801
0.44312599 -13.32350540 -1.69761801
0.53562599 -13.32600403 -1.69761801
0.62812603 -13.32600403 -1.69761801
0.74062598 -13.33683777 -1.69761801
0.83062601 -13.33850479 -1.69761801
-0.25437400 -13.24850464 -1.69761801
-0.16937400 -13.27850342 -1.69761801
0.87562603 -13.24850464 -1.69761801
-7.77437401 -13.16850471 -1.69761801
-3.05437398 -13.11517143 -1.69761801
-2.93437409 -13.10350418 -1.69761801
-2.83937407 -13.09350395 -1.69761801
-2.74437404 -13.10100555 -1.69761801
-2.65687394 -13.11100388 -1.69761801
-2.56187391 -13.10850334 -1.69761801
-2.49437404 -13.11350441 -1.69761801
-7.76437378 -13.03350353 -1.69761801
-5.71437407 -12.94850254 -1.69761801
-5.63687420 -12.93350410 -1.69761801
-5.53437424 -12.92850494 -1.69761801
-5.43437386 -12.92600441 -1.69761801
-7.74937391 -12.87850380 -1.69761801
-5.73937416 -12.87350464 -1.69761801
-7.74437380 -12.73850441 -1.69761801
-5.72937393 -12.69850254 -1.69761801
-7.72937393 -12.59350395 -1.69761801
-5.71937418 -12.53350353 -1.69761801
-7.71937418 -12.44850254 -1.69761801
-7.70437384 -12.30850410 -1.69761801
-5.70437384 -12.35850334 -1.69761801
-5.69937420 -12.19850254 -1.69761801
-7.68937397 -12.16850471 -1.69761801
-7.67437410 -12.02350426 -1.69761801
-5.68437386 -12.02850342 -1.69761801
-7.66437387 -11.88850403 -1.69761801
-5.67437410 -11.87350464 -1.69761801
-7.65437508 -11.75350380 -1.69761801
-5.66937399 -11.72350502 -1.69761801
-7.64437389 -11.62850380 -1.69761801
-5.65937424 -11.56350327 -1.69761801
-7.61437511 -11.44850254 -1.69761801
-5.64937401 -11.41850471 -1.69761801
-7.60437393 -11.33350372 -1.69761801
-4.78437424 -11.30350494 -1.69761801
-0.53437400 -11.31850433 -1.69761801
-7.59437418 -11.20850372 -1.69761801
-5.63937378 -11.25850487 -1.69761801
-4.79437399 -11.20350456 -1.69761801
-4.69437408 -11.19350433 -1.69761801
-0.48437399 -11.24850464 -1.69761801
-7.59437418 -11.09350395 -1.69761801
-5.62937403 -11.11350441 -1.69761801
-0.42937401 -11.13350487 -1.69761801
-4.60937405 -11.04350471 -1.69761801
-0.37937400 -11.00850487 -1.69761801
-7.57937384 -10.97350502 -1.69761801
-5.62437391 -10.96850395 -1.69761801
-4.51937389 -10.91350365 -1.69761801
1.03562605 -10.93850327 -1.69761801
-7.56437397 -10.84350395 -1.69761801
-5.59937382 -10.79350471 -1.69761801
-4.45937395 -10.85850334 -1.69761801
-4.38687420 -10.83600426 -1.69761801
-3.83937407 -10.81350327 -1.69761801
-3.69937396 -10.78350353 -1.69761801
-3.44937396 -10.80183792 -1.69761801
-3.34687400 -10.81600380 -1.69761801
-3.26187396 -10.81850433 -1.69761801
-3.16270804 -10.84350395 -1.69761801
-3.05437398 -10.84100342 -1.69761801
-2.95437407 -10.84850502 -1.69761801
-2.83687401 -10.79350471 -1.69761801
-0.32937399 -10.86850357 -1.69761801
-7.55937386 -10.72350502 -1.69761801
-4.10937405 -10.71850395 -1.69761801
-4.05437422 -10.74600601 -1.69761801
-3.96687508 -10.74350357 -1.69761801
-3.85937405 -10.74350357 -1.69761801
-3.76187396 -10.77600479 -1.69761801
-3.65937400 -10.77850342 -1.69761801
-3.55104089 -10.70683670 -1.69761801
-0.27937400 -10.75850487 -1.69761801
-5.59437418 -10.65350342 -1.69761801
-4.13937378 -10.66850471 -1.69761801
-3.87937403 -10.66350365 -1.69761801
-0.52937400 -10.63850403 -1.69761801
-0.22937401 -10.67850494 -1.69761801
-0.18937400 -10.66350365 -1.69761801
-7.53437424 -10.57350254 -1.69761801
-5.73437500 -10.49350357 -1.69761801
-5.57437420 -10.49350357 -1.69761801
-1.93937397 -10.51850510 -1.69761801
-1.85937405 -10.54683876 -1.69761801
-1.75937402 -10.53600311 -1.69761801
-1.65937400 -10.55183792 -1.69761801
-1.55937397 -10.55100441 -1.69761801
-1.45604098 -10.54683876 -1.69761801
-1.37437403 -10.55350494 -1.69761801
-1.23687398 -10.54600525 -1.69761801
-1.15687394 -10.55350494 -1.69761801
-1.05604100 -10.55683708 -1.69761801
-0.95437402 -10.52600479 -1.69761801
-0.81437403 -10.54350471 -1.69761801
-0.76187402 -10.56600380 -1.69761801
-0.65937400 -10.56683731 -1.69761801
-0.57937402 -10.57350254 -1.69761801
-7.53437424 -10.47350502 -1.69761801
-5.63437414 -10.46850586 -1.69761801
-1.96437395 -10.46350479 -1.69761801
-1.32437396 -10.43350410 -1.69761801
-1.28437400 -10.45350456 -1.69761801
-0.86687398 -10.44850540 -1.69761801
-7.51937389 -10.34850502 -1.69761801
-5.73937416 -10.33850479 -1.69761801
1.07562602 -10.34850502 -1.69761801
-7.51437378 -10.23850441 -1.69761801
1.13562596 -10.22350311 -1.69761801
1.21312594 -10.21350479 -1.69761801
-7.48437500 -10.08350372 -1.69761801
-7.48437500 -9.99850464 -1.69761801
-7.47437382 -9.87850380 -1.69761801
-5.65937424 -9.80850410 -1.69761801
-5.57937384 -9.82350254 -1.69761801
-7.46437407 -9.77350426 -1.69761801
-5.72937393 -9.75850487 -1.69761801
-7.45437384 -9.66350365 -1.69761801
-7.44437504 -9.55350494 -1.69761801
-7.44937515 -9.47350502 -1.69761801
-7.42937422 -9.33850479 -1.69761801
-7.42437410 -9.25350380 -1.69761801
-7.41937399 -9.15350342 -1.69761801
-7.40937424 -9.04350471 -1.69761801
-7.40437508 -8.94350433 -1.69761801
-7.39937401 -8.84850502 -1.69761801
-7.38937378 -8.74850464 -1.69761801
-7.37937403 -8.64350510 -1.69761801
-7.36437511 -8.53350353 -1.69761801
-7.36437511 -8.45350456 -1.69761801
-7.41937399 -8.31350517 -1.69761801
-7.37937403 -8.35850334 -1.69761801
-7.85103989 -8.19350433 -1.69761801
-7.74687386 -8.21100426 -1.69761801
-7.66437483 -8.22600365 -1.69761801
-7.56437397 -8.24683762 -1.69761801
-7.46687508 -8.27350426 -1.69761801
-8.62437439 -8.08350372 -1.69761801
-8.52937508 -8.08350372 -1.69761801
-8.46437454 -8.09350395 -1.69761801
-8.35437393 -8.10350418 -1.69761801
-8.24187469 -8.11850452 -1.69761801
-8.16187477 -8.13350487 -1.69761801
-8.05604172 -8.15183830 -1.69761801
-7.95187378 -8.17100334 -1.69761801
-8.67437363 -8.04600525 -1.69761801
-8.57437515 -8.07850456 -1.69761801
-7.83937407 -6.66850424 -1.69761801
6.28562593 -6.49350500 -1.69761801
6.24062586 -6.46350384 -1.69761801
6.35562611 -6.44017076 -1.69761801
-7.62437391 -6.28350496 -1.69761801
6.29562616 -6.34350395 -1.69761801
6.40062618 -6.34350395 -1.69761801
-7.55437422 -6.11350489 -1.69761801
-7.54437399 -6.03350496 -1.69761801
6.32062578 -6.05850506 -1.69761801
-7.52937508 -5.91600513 -1.69761801
6.33312607 -5.91350412 -1.69761801
-7.51937389 -5.80850506 -1.69761801
6.40062618 -5.83350420 -1.69761801
-7.51437378 -5.74350500 -1.69761801
-7.51437378 -5.67350388 -1.69761801
-7.49937391 -5.59850502 -1.69761801
-7.50437403 -5.54350424 -1.69761801
6.34062576 -5.52350521 -1.69761801
-7.49937391 -5.44850397 -1.69761801
6.33562613 -5.43350506 -1.69761801
-7.49187422 -5.31850481 -1.69761801
6.37812614 -5.34350395 -1.69761801
6.41062593 -5.30350399 -1.69761801
-7.48937511 -5.22850513 -1.69761801
6.44395924 -5.22683811 -1.69761801
-7.49437380 -5.14600420 -1.69761801
6.48562622 -5.17350388 -1.69761801
6.53062487 -5.12683821 -1.69761801
-7.52437401 -5.02100420 -1.69761801
-7.49937391 -5.07350492 -1.69761801
6.57062578 -5.07350492 -1.69761801
6.59812593 -5.02350521 -1.69761801
-7.56604099 -4.93683815 -1.69761801
6.59062576 -4.89850521 -1.69761801
-7.62937403 -4.82350397 -1.69761801
-7.60437393 -4.87350512 -1.69761801
6.58562613 -4.81350517 -1.69761801
6.60062599 -4.78350496 -1.69761801
-7.65187407 -4.75100517 -1.69761801
6.60062599 -4.70850420 -1.69761801
-7.65687418 -4.64350510 -1.69761801
6.62812614 -4.66350412 -1.69761801
-7.64687490 -4.52600479 -1.69761801
6.59062576 -4.48350477 -1.69761801
-7.64937401 -4.42100477 -1.69761801
6.61312580 -4.43350506 -1.69761801
-7.64437389 -4.30600500 -1.69761801
6.62062597 -4.34850502 -1.69761801
-7.65437508 -4.22100496 -1.69761801
6.62062597 -4.25100517 -1.69761801
-32.21437454 -4.10850477 -1.69761801
-7.65437508 -4.13850498 -1.69761801
6.63062620 -4.14350510 -1.69761801
-32.19937515 -4.02350521 -1.69761801
-7.62437391 -4.02850485 -1.69761801
6.63812590 -4.03350496 -1.69761801
-32.19937515 -3.93350506 -1.69761801
-7.62187290 -3.92350411 -1.69761801
6.64562607 -3.92600489 -1.69761801
10.94062614 -3.88350391 -1.69761801
-32.19437408 -3.85350490 -1.69761801
-7.61437416 -3.81350493 -1.69761801
6.65562582 -3.82100391 -1.69761801
10.93562508 -3.82850504 -1.69761801
-32.17437744 -3.72350502 -1.69761801
-7.60437393 -3.73350501 -1.69761801
6.66062593 -3.71350503 -1.69761801
10.92812538 -3.74600506 -1.69761801
-7.59687424 -3.64850497 -1.69761801
6.67312622 -3.62100506 -1.69761801
10.92729187 -3.62850404 -1.69761801
-7.59437418 -3.54350495 -1.69761801
6.67812586 -3.51600504 -1.69761801
10.93312454 -3.51600504 -1.69761801
-7.58187389 -3.44100404 -1.69761801
6.68562603 -3.41100502 -1.69761801
10.94312477 -3.42850494 -1.69761801
-7.57687378 -3.33850503 -1.69761801
6.69062614 -3.33350396 -1.69761801
10.94812584 -3.34350395 -1.69761801
-7.57687378 -3.24100399 -1.69761801
6.69062614 -3.27850509 -1.69761801
6.70312500 -3.22350502 -1.69761801
10.95729256 -3.23517203 -1.69761801
-7.56687498 -3.14100504 -1.69761801
6.72729206 -3.12850404 -1.69761801
10.96062660 -3.12600493 -1.69761801
-32.12937546 -3.01350498 -1.69761801
-7.55687523 -3.04100490 -1.69761801
6.73062611 -3.02850509 -1.69761801
10.96312523 -3.03850389 -1.69761801
-32.10437393 -2.92850399 -1.69761801
-7.56437397 -2.95600510 -1.69761801
6.73062611 -2.92517090 -1.69761801
10.97229195 -2.93517208 -1.69761801
-32.10937500 -2.84350395 -1.69761801
-7.54437399 -2.84600496 -1.69761801
6.74062586 -2.84350395 -1.69761801
10.98062515 -2.83100510 -1.69761801
-32.11437607 -2.76350498 -1.69761801
-7.54104090 -2.73017097 -1.69761801
6.72729301 -2.71183801 -1.69761801
10.98562622 -2.73017192 -1.69761801
-32.09937286 -2.64100504 -1.69761801
-7.53437424 -2.61350489 -1.69761801
6.75312614 -2.63100505 -1.69761801
10.99062538 -2.64350510 -1.69761801
10.99562645 -2.60350490 -1.69761801
-32.08937454 -2.51850510 -1.69761801
-7.53187418 -2.52600408 -1.69761801
6.75812578 -2.54350495 -1.69761801
10.99062538 -2.56350493 -1.69761801
10.99812508 -2.50600505 -1.69761801
22.65562439 -2.48350501 -1.69761801
22.84562492 -2.50850391 -1.69761801
23.00562477 -2.51850510 -1.69761801
23.17562485 -2.53350496 -1.69761801
-32.08937454 -2.44350505 -1.69761801
-7.52437401 -2.43350506 -1.69761801
6.76312590 -2.45100498 -1.69761801
11.00562668 -2.42600489 -1.69761801
21.10562515 -2.38850498 -1.69761801
21.24562454 -2.39850497 -1.69761801
21.36562538 -2.39850497 -1.69761801
21.51562500 -2.41350508 -1.69761801
21.66062546 -2.42350411 -1.69761801
21.79062462 -2.42850399 -1.69761801
21.93562508 -2.44350505 -1.69761801
22.09062576 -2.45350504 -1.69761801
22.23062515 -2.46350408 -1.69761801
22.38062477 -2.47350502 -1.69761801
22.52062607 -2.47850490 -1.69761801
-32.06937408 -2.34850502 -1.69761801
-7.51437378 -2.33850503 -1.69761801
6.76562500 -2.33350396 -1.69761801
6.89062595 -2.30350399 -1.69761801
6.93812609 -2.31350398 -1.69761801
7.02729321 -2.33850408 -1.69761801
7.14562607 -2.29350400 -1.69761801
11.00895882 -2.32350492 -1.69761801
19.49062538 -2.28350496 -1.69761801
19.59562492 -2.28350496 -1.69761801
19.72062492 -2.29350400 -1.69761801
19.84062576 -2.30350399 -1.69761801
19.95062447 -2.30850506 -1.69761801
20.06562614 -2.31350493 -1.69761801
20.22062492 -2.33350396 -1.69761801
20.33062553 -2.33350396 -1.69761801
20.46562576 -2.34350395 -1.69761801
20.58562469 -2.35350490 -1.69761801
20.71062469 -2.36350489 -1.69761801
20.84562492 -2.37350512 -1.69761801
20.96562576 -2.37350512 -1.69761801
-32.06437683 -2.22850490 -1.69761801
-7.51270723 -2.23017192 -1.69761801
6.79062605 -2.27850509 -1.69761801
6.81312609 -2.24600506 -1.69761801
7.05812597 -2.27350497 -1.69761801
7.14062500 -2.25850391 -1.69761801
11.01562500 -2.22850490 -1.69761801
17.97562599 -2.18350506 -1.69761801
18.07062531 -2.18350506 -1.69761801
18.17062569 -2.19350505 -1.69761801
18.28062439 -2.20350504 -1.69761801
18.38562584 -2.20850396 -1.69761801
18.48562622 -2.21350408 -1.69761801
18.59562492 -2.22350502 -1.69761801
18.70562553 -2.22850490 -1.69761801
18.81062508 -2.23850489 -1.69761801
18.92062569 -2.24350500 -1.69761801
19.03062439 -2.24850512 -1.69761801
19.15062523 -2.26350498 -1.69761801
19.25562477 -2.26350498 -1.69761801
19.36562538 -2.27350497 -1.69761801
-32.05937576 -2.10850501 -1.69761801
-7.50937414 -2.12350512 -1.69761801
11.02062607 -2.12850499 -1.69761801
16.47062492 -2.08350396 -1.69761801
16.56062508 -2.08850408 -1.69761801
16.63562584 -2.08850408 -1.69761801
16.73062515 -2.09350395 -1.69761801
16.82562637 -2.10850501 -1.69761801
16.92562485 -2.11850500 -1.69761801
17.07562637 -2.15850496 -1.69761801
17.10562515 -2.12850404 -1.69761801
17.24562454 -2.13850498 -1.69761801
17.39062500 -2.14850497 -1.69761801
17.47562599 -2.14850497 -1.69761801
17.57562447 -2.15850496 -1.69761801
17.67562485 -2.16350508 -1.69761801
17.77562523 -2.17350411 -1.69761801
17.87062454 -2.17350411 -1.69761801
-32.05437469 -2.02350497 -1.69761801
-7.50187397 -2.03600502 -1.69761801
7.05062580 -2.01350498 -1.69761801
15.05312538 -1.99100494 -1.69761801
15.16562653 -1.99850500 -1.69761801
15.24562645 -2.00350404 -1.69761801
15.31562614 -2.00850391 -1.69761801
15.43562508 -2.01350498 -1.69761801
15.55562592 -2.02350497 -1.69761801
15.63562584 -2.02850509 -1.69761801
15.75312614 -2.03350496 -1.69761801
15.87562561 -2.04350400 -1.69761801
15.95562553 -2.04850411 -1.69761801
16.04062653 -2.05350399 -1.69761801
16.12562561 -2.05850506 -1.69761801
16.24812508 -2.06600404 -1.69761801
16.38062668 -2.07850504 -1.69761801
-32.04437637 -1.94350505 -1.69761801
-7.50104094 -1.93350506 -1.69761801
10.85062599 -1.88850498 -1.69761801
13.37062645 -1.88350403 -1.69761801
13.43062592 -1.88350403 -1.69761801
13.52312469 -1.88850498 -1.69761801
13.64812469 -1.89100504 -1.69761801
13.75062561 -1.90350497 -1.69761801
13.84812546 -1.90850496 -1.69761801
13.94062614 -1.90850496 -1.69761801
14.05062485 -1.92350399 -1.69761801
14.14562607 -1.92350399 -1.69761801
14.21062660 -1.92350399 -1.69761801
14.32562637 -1.94100404 -1.69761801
14.43062592 -1.94850504 -1.69761801
14.53562546 -1.95350504 -1.69761801
14.64562607 -1.95850396 -1.69761801
14.75312614 -1.96850395 -1.69761801
14.87062645 -1.97850502 -1.69761801
14.93562508 -1.97850502 -1.69761801
-32.03187561 -1.82100499 -1.69761801
-7.45437384 -1.80350399 -1.69761801
10.79062653 -1.79350400 -1.69761801
10.81562614 -1.78350496 -1.69761801
10.95062637 -1.78350496 -1.69761801
11.00062561 -1.78350496 -1.69761801
11.85312653 -1.78350496 -1.69761801
11.96062469 -1.79350400 -1.69761801
12.06062508 -1.79850399 -1.69761801
12.14062500 -1.79850399 -1.69761801
12.22562599 -1.80600405 -1.69761801
12.33562469 -1.81350505 -1.69761801
12.44562531 -1.82100499 -1.69761801
12.56312561 -1.83100498 -1.69761801
12.64562607 -1.82850504 -1.69761801
12.69562531 -1.83350396 -1.69761801
12.94395828 -1.85683894 -1.69761801
13.05562592 -1.85850501 -1.69761801
13.14812469 -1.86350501 -1.69761801
13.23562622 -1.86850500 -1.69761801
13.30062485 -1.86850500 -1.69761801
-32.02437592 -1.69350505 -1.69761801
-26.66937447 -1.71350396 -1.69761801
-26.15937424 -1.68850505 -1.69761801
-7.44687414 -1.74100399 -1.69761801
10.83062553 -1.73100495 -1.69761801
11.03729153 -1.74350500 -1.69761801
11.14562607 -1.73850501 -1.69761801
11.24062538 -1.74350500 -1.69761801
11.34062576 -1.75100505 -1.69761801
11.44062614 -1.75600505 -1.69761801
11.54312515 -1.76600504 -1.69761801
11.64562607 -1.77100396 -1.69761801
11.74562454 -1.77850497 -1.69761801
-32.00937653 -1.61850500 -1.69761801
-27.01937485 -1.61350501 -1.69761801
-26.72937393 -1.62850404 -1.69761801
-26.24437523 -1.64350498 -1.69761801
-10.69437408 -1.63350499 -1.69761801
-7.43604088 -1.63183701 -1.69761801
6.84062576 -1.62600505 -1.69761801
-32.01937485 -1.53850496 -1.69761801
-26.98937416 -1.53850496 -1.69761801
-10.69937515 -1.53850496 -1.69761801
-7.42437410 -1.52350497 -1.69761801
6.84562588 -1.55350494 -1.69761801
7.13562584 -1.54850399 -1.69761801
-32.01437378 -1.45850396 -1.69761801
-32.00437546 -1.38350403 -1.69761801
-10.71437454 -1.46850395 -1.69761801
-7.42104101 -1.42683697 -1.69761801
6.84937620 -1.43225503 -1.69761801
6.94187593 -1.40475404 -1.69761801
7.00562620 -1.39350498 -1.69761801
7.12062597 -1.47850502 -1.69761801
-31.98937607 -1.29850399 -1.69761801
-10.61937332 -1.28350496 -1.69761801
-10.59937477 -1.34850502 -1.69761801
-7.41437387 -1.32600498 -1.69761801
7.03062582 -1.31350505 -1.69761801
7.12562609 -1.37350500 -1.69761801
-31.96937561 -1.21350396 -1.69761801
-10.64687538 -1.23850501 -1.69761801
-7.41437387 -1.23350501 -1.69761801
7.05895901 -1.25017095 -1.69761801
7.15562582 -1.22225404 -1.69761801
7.19562578 -1.23350501 -1.69761801
7.34062576 -1.19850504 -1.69761801
8.32562637 -1.19350505 -1.69761801
8.45562553 -1.23100495 -1.69761801
-31.98437500 -1.13850498 -1.69761801
-10.62770844 -1.13183701 -1.69761801
-7.41437387 -1.13850498 -1.69761801
7.16062593 -1.09850502 -1.69761801
7.23895884 -1.13683796 -1.69761801
7.36562586 -1.11183906 -1.69761801
7.44562578 -1.10517204 -1.69761801
7.53895998 -1.11350596 -1.69761801
7.64395905 -1.13350403 -1.69761801
7.74395895 -1.15017104 -1.69761801
7.81062603 -1.11850500 -1.69761801
7.98062611 -1.13850498 -1.69761801
8.06062508 -1.17850399 -1.69761801
8.13562584 -1.17517102 -1.69761801
8.22229195 -1.16683900 -1.69761801
-31.96437454 -1.05350399 -1.69761801
-10.61437416 -1.02350497 -1.69761801
-7.60437393 -1.00850403 -1.69761801
-7.41270781 -1.04683805 -1.69761801
7.26562595 -1.05850506 -1.69761801
7.78062582 -1.00850403 -1.69761801
7.86812496 -1.06100500 -1.69761801
-10.60937500 -0.96350503 -1.69761801
-10.59937477 -0.91850501 -1.69761801
-7.53937387 -0.91350502 -1.69761801
-7.43187380 -0.94225502 -1.69761801
-31.88937378 -0.87850499 -1.69761801
-10.58937454 -0.83517098 -1.69761801
-7.72437382 -0.83350497 -1.69761801
-7.51270723 -0.82183802 -1.69761801
-10.57937431 -0.73350501 -1.69761801
-7.95437384 -0.71350503 -1.69761801
-7.79437399 -0.75350499 -1.69761801
-7.68187380 -0.74100399 -1.69761801
-7.53104115 -0.73183799 -1.69761801
-31.94437408 -0.64850497 -1.69761801
-10.57437515 -0.63683802 -1.69761801
-8.93437386 -0.58350497 -1.69761801
-8.15562439 -0.61850500 -1.69761801
-8.06937408 -0.65350503 -1.69761801
-7.95937395 -0.64850497 -1.69761801
-7.73437500 -0.66850501 -1.69761801
-7.62937403 -0.64850497 -1.69761801
-31.92687225 -0.53600502 -1.69761801
-10.55437469 -0.53100401 -1.69761801
-8.75770569 -0.55350500 -1.69761801
-8.64687538 -0.55600500 -1.69761801
-8.51437378 -0.54350501 -1.69761801
-8.50437355 -0.56350499 -1.69761801
-8.38437462 -0.51350498 -1.69761801
-8.14937401 -0.50850397 -1.69761801
-7.62437391 -0.53850502 -1.69761801
-31.90937424 -0.40850401 -1.69761801
-10.53937531 -0.42850399 -1.69761801
-8.93937492 -0.46350399 -1.69761801
-8.88437462 -0.46850401 -1.69761801
-8.80437469 -0.44850400 -1.69761801
-8.67937469 -0.42350501 -1.69761801
-8.42437363 -0.43350500 -1.69761801
-8.25104141 -0.47183800 -1.69761801
-8.15437508 -0.46350500 -1.69761801
-31.90937424 -0.32850501 -1.69761801
-10.52437401 -0.32850501 -1.69761801
-31.91187286 -0.21850400 -1.69761801
-10.51437378 -0.25100499 -1.69761801
-10.50437355 -0.18850499 -1.69761801
-31.88937378 -0.09850500 -1.69761801
-10.47437477 -0.11600400 -1.69761801
-31.89437485 -0.01850500 -1.69761801
-10.75937462 -0.03350400 -1.69761801
-10.39937401 -0.01350500 -1.69761801
-31.87937546 0.05649500 -1.69761801
-10.75270844 0.06649500 -1.69761801
-10.35687447 0.06149500 -1.69761801
10.32812500 0.04149500 -1.69761801
-31.86937714 0.17899600 -1.69761801
-10.73437500 0.18149500 -1.69761801
-10.32937431 0.13149500 -1.69761801
-10.30437469 0.17649600 -1.69761801
-31.84937286 0.29649499 -1.69761801
-10.71437454 0.28149599 -1.69761801
-10.28104019 0.26149499 -1.69761801
-31.84437561 0.37649500 -1.69761801
-10.71437454 0.33649501 -1.69761801
-10.69437408 0.39649501 -1.69761801
-10.26187515 0.36149499 -1.69761801
-10.66187477 0.48399499 -1.69761801
-10.22603989 0.46649501 -1.69761801
-10.60437393 0.56649500 -1.69761801
-10.19687462 0.56899500 -1.69761801
-10.55187416 0.64899498 -1.69761801
-10.17437363 0.62649500 -1.69761801
-10.49103928 0.76649600 -1.69761801
-10.46604156 0.87816203 -1.69761801
-10.44937515 0.96899599 -1.69761801
-10.44270706 1.05816197 -1.69761801
-10.42937469 1.16149497 -1.69761801
-10.42604065 1.25982904 -1.69761801
-10.41770744 1.36149502 -1.69761801
-10.42312431 1.46899498 -1.69761801
-10.42270660 1.58149505 -1.69761801
-10.43437386 1.67149496 -1.69761801
-10.46187401 1.76774502 -1.69761801
-10.51437378 1.91649497 -1.69761801
-10.48770714 1.86649501 -1.69761801
-10.50937462 1.96649504 -1.69761801
-10.50437355 2.01149511 -1.69761801
-10.51937485 2.06982899 -1.69761801
-10.74687386 2.20899510 -1.69761801
-10.64187431 2.18649507 -1.69761801
-10.45437431 2.17399502 -1.69761801
-11.30937386 2.28649497 -1.69761801
-11.24437332 2.28149605 -1.69761801
-11.16937447 2.27649498 -1.69761801
-11.07437515 2.26649499 -1.69761801
-10.96437454 2.24649501 -1.69761801
-10.85187531 2.22899508 -1.69761801
-10.44937515 2.22149491 -1.69761801
-12.23937416 2.41149497 -1.69761801
-12.14937401 2.40649605 -1.69761801
-12.07937431 2.40149498 -1.69761801
-11.95437431 2.39399505 -1.69761801
-11.84937477 2.38149500 -1.69761801
-11.75187492 2.36649609 -1.69761801
-11.64437485 2.35649490 -1.69761801
-11.55437469 2.34149504 -1.69761801
-11.27687454 2.34899497 -1.69761801
-18.81187439 3.06899500 -1.69761801
-18.79437447 3.15899491 -1.69761801
-18.79187393 3.25649500 -1.69761801
-18.78187561 3.34899497 -1.69761801
-18.76937294 3.46816206 -1.69761801
-18.74187469 3.58899498 -1.69761801
-2.94437408 10.19149590 -1.69761801
-2.83687401 10.14649582 -1.69761801
-2.77187395 10.17524529 -1.69761801
-2.69062400 10.19024563 -1.69761801
-3.05437398 10.24649525 -1.69761801
-2.95937395 10.27982903 -1.69761801
-2.67624903 10.26587009 -1.69761801
-2.95937395 10.32649517 -1.69761801
-2.64874911 10.36212063 -1.69761801
-2.62874889 10.46586990 -1.69761801
-2.59937406 10.50649548 -1.69761801
-2.61437392 10.58816147 -1.69761801
-2.59437394 10.55316162 -1.69761801
5.77062607 13.47649574 -1.69761801
5.81062603 13.48649597 -1.69761801
7.95312500 14.07274628 -1.69761801
8.01562595 14.04399490 -1.69761801
2.62962604 14.30549431 -1.69761801
21.28562546 14.91149521 -1.69761801
21.55562592 14.91149521 -1.69761801
21.69062614 14.91149521 -1.69761801
21.79062462 14.89649582 -1.69761801
21.91562462 14.89149475 -1.69761801
22.02562523 14.88149548 -1.69761801
22.14562607 14.87149525 -1.69761801
22.28562546 14.87149525 -1.69761801
22.41062546 14.86149597 -1.69761801
22.55562592 14.86149597 -1.69761801
22.70562553 14.86149597 -1.69761801
22.82062531 14.85149574 -1.69761801
22.96562576 14.84649467 -1.69761801
23.10062599 14.84149647 -1.69761801
19.78562546 15.00149536 -1.69761801
19.81562614 14.96649647 -1.69761801
20.33062553 14.98149490 -1.69761801
20.42562485 14.97149467 -1.69761801
20.53562546 14.96649647 -1.69761801
20.62062454 14.95149517 -1.69761801
20.74062538 14.95149517 -1.69761801
20.85062599 14.94149590 -1.69761801
20.94562531 14.92649555 -1.69761801
21.07562447 14.93149567 -1.69761801
21.18062592 14.92149544 -1.69761801
21.46562576 14.93149567 -1.69761801
19.62062454 15.05149746 -1.69761801
-12.47437477 15.21149445 -1.69761801
-12.44437408 15.27316284 -1.69761801
-12.36937332 15.31149483 -1.69761801
3.06562591 16.20649529 -1.69761801
2.14962602 16.29949570 -1.69761801
2.22062612 16.28899574 -1.69761801
3.13437605 16.26149559 -1.69761801
1.34812605 16.39399529 -1.69761801
0.57562602 16.43649483 -1.69761801
0.67562598 16.51149559 -1.69761801
1.07062602 16.44899559 -1.69761801
1.14462602 16.45549583 -1.69761801
1.24062598 16.45899582 -1.69761801
1.32895899 16.42149544 -1.69761801
0.59062600 16.52649498 -1.69761801
0.63062602 16.55316162 -1.69761801
7.35562611 23.26149559 -1.69761801
7.39562607 23.26149559 -1.69761801
9.01562595 23.30649567 -1.69761801
9.10562515 23.31649590 -1.69761801
9.25312614 23.29149628 -1.69761801
9.34312630 23.29149628 -1.69761801
9.44312477 23.30649567 -1.69761801
9.53062439 23.29899597 -1.69761801
9.64562607 23.29649734 -1.69761801
9.76312637 23.29649734 -1.69761801
9.85562515 23.29149628 -1.69761801
9.93812561 23.28149605 -1.69761801
10.03562546 23.28149605 -1.69761801
10.12812614 23.27899551 -1.69761801
10.22062492 23.27899551 -1.69761801
10.34229279 23.27316093 -1.69761801
10.46562576 23.28399658 -1.69761801
10.56062508 23.28149414 -1.69761801
8.31312561 23.37149620 -1.69761801
9.07062531 23.33649635 -1.69761801
9.15562630 23.32149506 -1.69761801
9.20562553 23.32649612 -1.69761801
6.98562622 23.51649666 -1.69761801
7.17062616 23.50399590 -1.69761801
7.23562622 23.50649643 -1.69761801
7.05062580 23.58149529 -1.69761801
7.12562609 23.60899544 -1.69761801
-16.61437416 51.10149765 -1.69761801
-16.87937546 51.15149689 -1.69761801
-16.77437401 51.18649673 -1.69761801
-16.54437447 51.19149399 -1.69761801
-16.40437508 51.13149643 -1.69761801
-16.28937531 51.13649750 -1.69761801
-16.21937561 51.22649765 -1.69761801
-15.99937439 51.26149750 -1.69761801
-15.87437439 51.22649765 -1.69761801
-15.81437492 51.37649536 -1.69761801
-15.71437454 51.41649628 -1.69761801
-15.67437553 51.59149551 -1.69761801
-15.62937546 51.78149414 -1.69761801
-15.50937462 51.76649475 -1.69761801
-5.04937410 52.88649750 -1.69761801
-7.16437387 52.93649673 -1.69761801
-5.17937422 53.00149536 -1.69761801
-4.94937420 52.92649460 -1.69761801
-6.86937380 53.02149582 -1.69761801
-5.50437403 53.11649704 -1.69761801
-5.27937412 53.03149414 -1.69761801
-6.78437424 53.20149612 -1.69761801
-6.35937405 53.15649414 -1.69761801
-5.39437389 53.14149475 -1.69761801
-7.11437511 53.25649643 -1.69761801
-7.00937414 53.25149536 -1.69761801
-6.59437418 53.30149460 -1.69761801
-6.47437382 53.25149536 -1.69761801
-6.27937412 53.30149460 -1.69761801
-5.62937403 53.29149628 -1.69761801
-6.71937418 53.40149689 -1.69761801
-6.17937422 53.36649704 -1.69761801
-5.85937405 53.39649582 -1.69761801
-5.74937391 53.32649612 -1.69761801
-6.08437395 53.45149612 -1.69761801
-5.97437382 53.42649460 -1.69761801
-3.12437391 10.30149555 -1.57261801
-3.05770802 10.31149483 -1.57261801
-2.93437409 10.28982925 -1.57595098
-2.88437390 10.30274582 -1.57761800
-3.13687396 10.33399582 -1.57261801
-3.03687406 10.33149529 -1.57261801
-2.83812404 10.32524490 -1.57761800
-2.75073791 10.36740494 -1.57761800
-2.70437407 10.41649532 -1.57761800
-2.66346502 10.47513199 -1.57761800
-2.60937405 10.52149582 -1.57761800
-2.59854102 10.56482887 -1.57761800
6.70562601 -3.04183888 -1.43261802
6.71812582 -2.92850494 -1.43261802
6.72312593 -2.83350396 -1.43511796
6.72812605 -2.74350405 -1.43761802
6.73562479 -2.62850499 -1.43761802
6.73812580 -2.50850511 -1.44261801
6.75562620 -2.44100404 -1.44261801
6.75562620 -2.34100509 -1.44511795
6.76229286 -2.23683810 -1.44761801
6.76812601 -2.13600492 -1.44761801
6.77729177 -2.03350496 -1.45095098
6.79062605 -1.96350396 -1.45261800
6.79812622 -1.90600395 -1.45261800
6.80312586 -1.82600498 -1.45261800
6.81562614 -1.73850501 -1.45761800
6.83562613 -1.64350498 -1.45761800
6.85562611 -1.54517102 -1.45761800
6.87562609 -1.45350397 -1.46261799
6.89562607 -1.39850497 -1.46261799
6.94562578 -1.33267200 -1.46261799
7.03562593 -1.24450505 -1.46261799
7.11395884 -1.19850504 -1.46261799
7.42562580 -1.19350505 -1.45761800
7.16062593 -1.16850400 -1.46261799
7.22437620 -1.13600504 -1.46261799
7.44812489 -1.13100505 -1.45761800
7.54187584 -1.10350502 -1.45761800
7.65729189 -1.11683798 -1.45761800
7.74562502 -1.11517096 -1.45595098
7.80062580 -1.10350502 -1.45261800
7.97562599 -1.08350396 -1.45261800
8.04062653 -1.08350396 -1.45261800
8.13812637 -1.08850396 -1.44761801
8.24312592 -1.13850498 -1.44761801
8.35937595 -1.16100502 -1.44511795
7.24562502 -1.03017104 -1.46261799
7.83562613 -1.07850504 -1.45261800
8.08562565 -1.07850504 -1.45261800
-3.01437402 10.30149555 -1.44761801
-2.95312500 10.30899525 -1.45136797
-3.06937408 10.32149506 -1.44761801
-2.95437407 10.32149506 -1.45011795
-2.85374904 10.33962059 -1.45261800
-2.75381899 10.38593960 -1.45706201
-2.69937396 10.41649532 -1.45761800
-2.66659594 10.46260643 -1.45706201
-2.65037394 10.55849648 -1.45261800
5.76062584 13.41649532 -1.51761794
5.75729322 13.47149467 -1.51261795
7.85062599 14.03649521 -1.47261798
7.94937611 14.06524563 -1.47261798
8.00562572 14.04149532 -1.47261798
2.57562590 14.29149532 -1.52761805
2.62395906 14.30482864 -1.52761805
2.64312601 14.32399559 -1.52261806
2.64562607 16.21149445 -1.48261797
2.70562601 16.31649590 -1.47761798
2.83062601 16.30649567 -1.47761798
1.21062601 16.38649559 -1.48261797
2.13062596 16.32649612 -1.48261797
2.54562593 16.40149498 -1.47761798
2.62229300 16.33482742 -1.47761798
2.75062609 16.33316040 -1.47761798
2.80812597 16.35149574 -1.47761798
0.78562599 16.43649483 -1.47761798
0.80562598 16.51649475 -1.47761798
1.25229204 16.48649597 -1.47761798
1.33862603 16.48649597 -1.47761798
1.44562602 16.46749496 -1.47761798
2.53062606 16.42649460 -1.47761798
0.85812598 16.56899643 -1.47761798
0.92062598 16.56399536 -1.47761798
2.54562593 16.72149467 -1.47261798
2.59562612 17.23149490 -1.45761800
6.26062584 -6.34850502 -1.36761796
6.23562622 -6.19350481 -1.36761796
6.23562622 -6.10350513 -1.37261796
6.24562597 -6.03350496 -1.37261796
6.24812603 -5.92100382 -1.37511802
6.25562620 -5.81350517 -1.37761796
6.27312613 -5.72850513 -1.37761796
6.29062605 -5.64850521 -1.38261795
6.30062580 -5.58850384 -1.38261795
6.29562616 -5.49850512 -1.38261795
6.32729197 -5.42017078 -1.38428402
6.37062597 -5.32350397 -1.38761795
6.42562485 -5.22475481 -1.38761795
6.47562599 -5.15350485 -1.38761795
6.51895905 -5.10517120 -1.38928401
6.57062578 -5.04100513 -1.39261794
6.57062578 -4.93350506 -1.39261794
6.57812595 -4.83600521 -1.39511800
6.57062578 -4.72350502 -1.39761806
6.58062601 -4.63600492 -1.39761806
6.61562586 -4.60350513 -1.39761806
6.58562613 -4.47850513 -1.40261805
6.60312605 -4.41350412 -1.40261805
6.60062599 -4.31850481 -1.40761805
6.60812616 -4.22850513 -1.40761805
-7.69937515 -4.08850384 -1.36761796
6.62062597 -4.12350512 -1.41011798
-7.71187401 -4.03600502 -1.36761796
6.62812614 -4.01600504 -1.41261804
-7.71937418 -3.96350408 -1.36761796
6.63562584 -3.90600395 -1.41261804
6.64062595 -3.82350492 -1.41761804
10.87562561 -3.86350489 -1.35761797
10.92312622 -3.84350395 -1.35761797
6.65062618 -3.72517204 -1.41761804
10.91812515 -3.73850489 -1.36261797
6.65562582 -3.61850500 -1.41761804
10.91812515 -3.64350605 -1.36261797
6.67062616 -3.55850506 -1.42261803
10.92562485 -3.53183889 -1.36261797
6.66812611 -3.44100404 -1.42261803
10.93062592 -3.42100501 -1.36761796
6.68062496 -3.35100389 -1.42511797
10.93562508 -3.33350396 -1.36761796
-7.63937378 -3.20350504 -1.38261795
6.68812609 -3.24600506 -1.42761803
10.94395828 -3.22350502 -1.36761796
-7.65770817 -3.13017106 -1.38428402
6.69062614 -3.17850399 -1.42761803
6.70062590 -3.14350510 -1.42761803
10.95062637 -3.11850405 -1.37261796
-7.61937380 -2.99350500 -1.38761795
10.95812607 -3.03350496 -1.37261796
10.95895958 -2.92683697 -1.37261796
10.97062492 -2.82600498 -1.37761796
10.97062492 -2.74100399 -1.37761796
10.98062515 -2.64183903 -1.37761796
10.98812485 -2.54100490 -1.37761796
-7.19437504 -2.38350391 -1.40261805
10.99062538 -2.45850396 -1.38261795
10.99562645 -2.39850497 -1.38261795
-7.23687410 -2.32475495 -1.40636802
-7.14937401 -2.37850404 -1.40761805
11.00062561 -2.34100509 -1.38261795
11.00229263 -2.24017191 -1.38261795
-7.46937418 -2.13850498 -1.40261805
11.01395798 -2.12517095 -1.38761795
-7.57812500 -2.03100395 -1.40511799
-7.61437511 -1.96350396 -1.40761805
10.93562508 -1.96850395 -1.38761795
13.83562660 -1.88350403 -1.33761799
13.93812561 -1.88850498 -1.33761799
14.04562569 -1.89850497 -1.33261800
14.14062500 -1.90350497 -1.33261800
14.23562622 -1.90350497 -1.33261800
-7.72437382 -1.80350399 -1.40761805
-7.65270901 -1.80850601 -1.40761805
10.78562546 -1.79350400 -1.39761806
12.24312592 -1.78600502 -1.37011802
12.35812569 -1.79350400 -1.36761796
12.43562508 -1.79350400 -1.36761796
12.52562523 -1.80600405 -1.36261797
12.63812637 -1.80850506 -1.36261797
12.84062576 -1.82350504 -1.35761797
12.94062614 -1.83600497 -1.35761797
13.05312538 -1.83600497 -1.35261798
13.14562607 -1.84350395 -1.35261798
13.23312569 -1.84350395 -1.35011804
13.35312462 -1.84850502 -1.34761798
13.45062637 -1.85850501 -1.34761798
13.55062485 -1.86850500 -1.34261799
13.64062500 -1.86850500 -1.34261799
13.74062538 -1.87600505 -1.34011805
-7.78062487 -1.75600505 -1.40761805
10.79895973 -1.72850502 -1.39761806
10.95062637 -1.73183799 -1.39261794
11.04729271 -1.72683799 -1.39261794
11.15812492 -1.71350396 -1.39011800
11.25812531 -1.71850395 -1.38761795
11.35812569 -1.72850502 -1.38761795
11.45812607 -1.73600399 -1.38261795
11.55812645 -1.74100494 -1.38261795
11.66312599 -1.74850500 -1.38011801
11.76312637 -1.75600505 -1.37761796
11.84562492 -1.75850403 -1.37761796
11.92312622 -1.76600504 -1.37761796
12.03062630 -1.77100396 -1.37261796
12.13312531 -1.77350497 -1.37261796
12.65062523 -1.75850403 -1.36261797
-8.73437500 -1.63850498 -1.39261794
-8.64437485 -1.63850498 -1.39261794
-8.59937477 -1.63850498 -1.39261794
-8.46687508 -1.61850500 -1.39761806
-8.35437393 -1.57850504 -1.39761806
-7.68437386 -1.49350500 -1.41261804
-7.70187378 -1.44850397 -1.41261804
-10.71687508 -1.32600498 -1.36011803
-10.67937469 -1.35850501 -1.36261797
-10.72937393 -1.25600505 -1.36261797
-7.81187391 -1.21350503 -1.41261804
-7.76437378 -1.22850502 -1.41261804
-10.68937492 -1.17350399 -1.36261797
-7.82937384 -1.17850399 -1.41261804
-10.63437462 -0.78850502 -1.36761796
-10.63187408 -0.72850502 -1.36761796
-10.74437332 -0.59350401 -1.36761796
-10.64937401 -0.62725401 -1.37136805
-11.65937424 -0.42850399 -1.35261798
-11.24437523 -0.43100500 -1.36261797
-11.12937355 -0.41850501 -1.36261797
-11.24437332 -0.37850499 -1.36261797
10.36562538 0.02649500 -1.42761803
-2.83437395 10.30899525 -1.33261800
-2.82104111 10.33649540 -1.33261800
-2.79354095 10.38232803 -1.33261800
-2.77237391 10.44849491 -1.33261800
5.74562597 13.43899536 -1.33261800
2.58062601 14.28649521 -1.35261798
2.66562605 14.31149483 -1.35261798
2.62687612 14.32774544 -1.35011804
-4.71937418 -12.09850502 -1.23261797
-5.67437410 -11.86350441 -1.23261797
-5.65937424 -11.68850327 -1.23261797
-4.67187500 -11.73600388 -1.24261796
-5.64937401 -11.52850342 -1.23761797
-5.64437389 -11.39350510 -1.24261796
0.98562598 -11.40850353 -1.26761794
-5.62937403 -11.22850418 -1.24761796
-5.62937403 -11.09850502 -1.24761796
-7.59437418 -10.99350357 -1.23261797
-5.61937380 -10.94850254 -1.25261796
1.03062606 -10.92350388 -1.28261805
-7.57937384 -10.85850334 -1.23761797
-3.83437395 -10.87100410 -1.26761794
-3.04937410 -10.80350494 -1.27261806
-2.96187401 -10.78850555 -1.27261806
-2.89937401 -10.78350353 -1.27261806
-7.55437422 -10.70850372 -1.23761797
-5.58937407 -10.75850487 -1.25761795
-3.55604100 -10.71350479 -1.27261806
-3.45437407 -10.73350525 -1.27261806
-3.37437391 -10.74350357 -1.27261806
-3.26604104 -10.74350357 -1.27261806
-3.16437411 -10.75850296 -1.27261806
-3.10437393 -10.77350426 -1.27261806
-2.82937407 -10.76100540 -1.27261806
-2.76437402 -10.73350334 -1.27761805
-7.55437422 -10.60850334 -1.24261796
-5.57937384 -10.61850357 -1.25761795
-3.61937404 -10.63850403 -1.27261806
-7.55437422 -10.50350380 -1.24261796
-5.73187399 -10.48600388 -1.26261795
-1.85770798 -10.51517105 -1.28261805
-1.77437401 -10.50350380 -1.28261805
-1.34937406 -10.48600388 -1.28761804
-1.20937395 -10.48350334 -1.28761804
-1.05104101 -10.48850441 -1.28761804
-0.94937402 -10.48600388 -1.28761804
-0.85270798 -10.49183846 -1.28761804
-0.75687402 -10.50350380 -1.28761804
-0.65937400 -10.49850464 -1.28761804
-0.55687398 -10.50100327 -1.28761804
-0.46270800 -10.53683853 -1.28761804
-0.35937399 -10.52600479 -1.28761804
-0.29937401 -10.50850487 -1.28761804
-0.17937399 -10.50850487 -1.28761804
-7.54437399 -10.38350487 -1.24761796
-5.78437424 -10.43850327 -1.26261795
-5.63687420 -10.46600342 -1.26261795
-5.57437420 -10.47850418 -1.26261795
-1.94687402 -10.45350266 -1.28511798
-1.72937405 -10.46850395 -1.28761804
-1.64104104 -10.42683792 -1.28761804
-1.54687405 -10.46850395 -1.28761804
-1.44770706 -10.47350502 -1.28761804
-1.26937401 -10.47350311 -1.28761804
-1.15187395 -10.47350311 -1.28761804
-0.23437400 -10.45600510 -1.29261804
-0.13937400 -10.45850372 -1.29261804
1.07562602 -10.45850372 -1.29261804
-1.98937404 -10.36350441 -1.28761804
-7.50437403 -10.22350502 -1.24761796
1.13562596 -10.20350456 -1.29761803
1.21312594 -10.18850327 -1.29761803
-7.50437403 -10.12350464 -1.25261796
-7.49437380 -10.00850487 -1.25261796
-7.48937511 -9.90350342 -1.25761795
-7.47937393 -9.79350471 -1.25761795
-7.46937418 -9.68350410 -1.26261795
-7.45937395 -9.57350254 -1.26261795
-7.45437384 -9.42850494 -1.26761794
-7.42937422 -9.25350380 -1.26761794
-7.43437386 -9.17350388 -1.27261806
-10.98437500 -8.98850441 -1.23261797
-7.41937399 -9.05850410 -1.27261806
-10.98437500 -8.91350555 -1.23261797
-7.41437387 -8.95850372 -1.27761805
-10.97937393 -8.83350372 -1.23261797
-7.40437508 -8.85350418 -1.27761805
-10.96937370 -8.74350452 -1.23761797
-7.39937401 -8.76350403 -1.28261805
-10.96437454 -8.63100433 -1.23761797
-7.38437414 -8.64850426 -1.28261805
-10.95937347 -8.51850510 -1.23761797
-7.38437414 -8.57350540 -1.28261805
-10.95437431 -8.44350433 -1.24261796
-7.36937523 -8.41850471 -1.28761804
-10.95187378 -8.33600426 -1.24261796
-7.41937399 -8.30850410 -1.28761804
-7.39437389 -8.34850502 -1.28761804
-10.94937515 -8.21850395 -1.24761796
-7.86937523 -8.18850517 -1.28761804
-7.76603985 -8.19850540 -1.28761804
-7.66437483 -8.22100353 -1.28761804
-7.56437302 -8.24183846 -1.28761804
-7.46937513 -8.27350426 -1.28761804
-8.46187401 -8.08350372 -1.28261805
-8.35103989 -8.09350586 -1.28261805
-8.24187469 -8.11100388 -1.28261805
-8.15937424 -8.12600517 -1.28261805
-8.05437469 -8.14517212 -1.28595102
-7.95187378 -8.16850471 -1.28761804
-9.65937424 -8.07350540 -1.26761794
-9.55604172 -8.06517029 -1.26761794
-9.43437386 -8.07850456 -1.26761794
-9.33687401 -8.07850456 -1.27011800
-9.26437378 -8.07850456 -1.27261806
-9.17937469 -8.06350517 -1.27261806
-9.07687378 -8.06350517 -1.27261806
-8.97437477 -8.05600357 -1.27511799
-8.87687492 -8.06100464 -1.27761805
-8.75770760 -8.06183815 -1.27761805
-8.64187431 -8.07100487 -1.27761805
-8.55187416 -8.07600403 -1.28261805
18.51562500 -2.18350506 -1.24261796
18.62562561 -2.18850493 -1.23761797
18.73062515 -2.19850492 -1.23761797
18.84062576 -2.20350504 -1.23761797
18.94562531 -2.20850396 -1.23261797
19.06562614 -2.21850395 -1.23261797
16.86062622 -2.08350396 -1.27761805
17.02312660 -2.10600495 -1.27261806
17.12562561 -2.09350395 -1.27261806
17.22062492 -2.10350490 -1.26761794
17.31562614 -2.10850501 -1.26761794
17.41062546 -2.11850500 -1.26761794
17.51062584 -2.11850500 -1.26261795
17.64562607 -2.12600493 -1.26011801
17.79062462 -2.13350391 -1.25761795
17.89562607 -2.14350510 -1.25761795
17.99562454 -2.14850497 -1.25261796
18.10062599 -2.15850496 -1.25261796
18.20562553 -2.16350508 -1.24761796
18.31062508 -2.17350411 -1.24761796
