# This PCD file was generated using the MATLAB® pcwrite function
# from Computer Vision System Toolbox®.
# .PCD v.7 - Point Cloud Data file format
VERSION .7
FIELDS x y z
SIZE 4 4 4
TYPE F F F
COUNT 1 1 1
WIDTH 1593
HEIGHT 1
VIEWPOINT 0 0 0 1 0 0 0
POINTS 1593
DATA ascii
20.596790 10.870566 -2.188216
20.066788 11.030566 -2.178216
20.206791 10.990566 -2.178216
20.356789 10.955566 -2.183216
19.846790 11.115566 -2.173216
19.896790 11.080566 -2.173216
20.001789 11.060566 -2.173216
19.611790 11.218066 -2.168216
19.706791 11.175566 -2.168216
19.801788 11.150566 -2.173216
19.444290 11.308066 -2.163216
19.506790 11.255566 -2.163216
19.309292 11.408066 -2.160716
19.381790 11.360566 -2.163216
19.166790 11.525566 -2.158216
19.256790 11.480566 -2.158216
19.091789 11.570566 -2.158216
8.926789 11.800566 -2.158216
18.616791 13.145567 -2.158216
10.326789 13.215567 -2.248216
18.666790 13.205566 -2.158216
18.739288 13.300567 -2.160716
18.766788 13.425566 -2.163216
18.776791 13.380566 -2.163216
7.730539 13.504316 -2.163216
7.806789 13.490566 -2.163216
18.621788 13.503900 -2.159883
18.716789 13.450566 -2.163216
7.691789 13.553066 -2.163216
18.586788 13.580566 -2.158216
18.589291 13.830566 -2.163216
18.751789 13.825566 -2.168216
18.894291 13.810566 -2.168216
18.986790 13.775566 -2.168216
18.531788 13.898067 -2.163216
18.524288 13.988067 -2.163216
2.438039 14.109316 -2.233216
2.481789 14.085567 -2.233216
19.766788 14.555567 -2.193216
19.776791 14.610566 -2.193216
19.764290 14.680567 -2.193216
19.735123 14.788899 -2.193216
19.701790 14.898067 -2.193216
19.684288 14.988067 -2.198216
19.651791 15.100566 -2.198216
19.671791 15.060566 -2.198216
19.648457 15.198900 -2.198216
19.624290 15.313066 -2.198216
18.996788 15.445566 -2.188216
19.076790 15.435566 -2.188216
19.621792 15.410566 -2.198216
18.761791 15.530566 -2.183216
18.814289 15.480566 -2.183216
18.911789 15.455566 -2.183216
19.579288 15.493066 -2.198216
18.756790 15.575566 -2.183216
18.771790 15.630567 -2.183216
19.456791 15.560566 -2.198216
19.566788 15.560566 -2.198216
4.089290 15.745566 -2.158216
3.846789 15.770566 -2.158216
3.913456 15.752233 -2.158216
4.015790 15.752566 -2.158216
4.139289 15.758067 -2.158216
4.210539 15.775566 -2.163216
4.281789 15.785566 -2.163216
4.451789 15.990566 -2.173216
4.491789 16.005566 -2.178216
19.319290 15.978066 -2.198216
19.315121 16.100567 -2.198216
0.939289 16.233067 -2.158216
0.981789 16.228065 -2.158216
19.256790 16.225567 -2.198216
19.276791 16.180565 -2.198216
0.466789 16.340567 -2.163216
0.618039 16.335567 -2.163216
0.718789 16.305567 -2.158216
0.822789 16.279568 -2.158216
0.896789 16.273067 -2.158216
19.156788 16.330566 -2.198216
19.196789 16.270565 -2.198216
0.546789 16.385567 -2.163216
0.591789 16.355566 -2.163216
19.121788 16.410566 -2.198216
0.471789 16.570566 -2.173216
19.106789 16.555565 -2.198216
0.476789 16.965567 -2.193216
0.491789 17.055565 -2.193216
18.331791 17.855566 -2.198216
18.311790 17.950565 -2.198216
18.371788 18.045567 -2.203216
18.316792 18.093067 -2.203216
18.314289 18.200565 -2.203216
18.294289 18.295567 -2.203216
18.286789 18.400566 -2.203216
18.224289 18.470566 -2.203216
18.191788 18.645565 -2.208216
18.161789 18.740566 -2.208216
18.171791 18.690567 -2.208216
18.124290 18.795567 -2.208216
18.046791 18.940567 -2.208216
18.101791 18.893066 -2.208216
18.036789 19.023067 -2.208216
18.004292 19.110565 -2.208216
17.981789 19.208065 -2.208216
17.934292 19.293068 -2.208216
17.889290 19.375565 -2.208216
17.836788 19.510567 -2.213216
17.871788 19.450565 -2.213216
17.804291 19.605568 -2.213216
17.766788 19.725567 -2.213216
17.791790 19.685566 -2.213216
17.711788 19.798899 -2.213216
17.626789 19.913898 -2.213216
17.551788 20.035566 -2.213216
17.581791 19.995567 -2.213216
17.511791 20.095566 -2.213216
17.434288 20.210567 -2.213216
17.476788 20.155567 -2.213216
17.399292 20.310566 -2.213216
17.356789 20.425568 -2.218216
17.376789 20.380566 -2.213216
17.356789 20.485565 -2.218216
17.323456 20.580566 -2.218216
17.289291 20.708065 -2.218216
17.261791 20.845566 -2.218216
17.271790 20.790565 -2.218216
17.246788 20.890566 -2.218216
17.216789 20.990566 -2.223216
17.181789 21.118065 -2.223216
17.156788 21.195566 -2.223216
17.111790 21.318066 -2.223216
17.076790 21.413067 -2.225716
17.049290 21.518066 -2.228216
16.996788 21.605568 -2.228216
16.956789 21.735565 -2.228216
17.001789 21.705566 -2.228216
16.926788 21.803066 -2.228216
16.889290 21.903067 -2.228216
16.841789 21.993065 -2.230716
16.811790 22.070566 -2.233216
16.566790 22.445566 -2.233216
16.564289 22.608067 -2.235716
16.601789 22.550568 -2.238216
16.451790 22.745567 -2.238216
16.504290 22.690567 -2.238216
16.421791 22.818066 -2.238216
10.716789 22.855566 -2.158216
16.351789 22.925568 -2.238216
16.376789 22.880566 -2.238216
16.261789 23.045567 -2.238216
16.304291 22.980564 -2.238216
16.219288 23.113068 -2.238216
16.161789 23.230568 -2.238216
16.186790 23.180565 -2.238216
16.066790 23.340565 -2.238216
16.119289 23.293064 -2.240716
16.016788 23.403065 -2.240716
15.941790 23.505566 -2.243216
15.976789 23.465565 -2.243216
15.924289 23.595566 -2.243216
15.831790 23.713066 -2.243216
15.876789 23.650566 -2.243216
15.756789 23.820568 -2.243216
15.776790 23.770565 -2.243216
15.741790 23.918064 -2.243216
15.691789 24.020565 -2.248216
15.646790 24.118065 -2.248216
15.596789 24.180565 -2.248216
15.549289 24.313065 -2.248216
15.596789 24.250565 -2.248216
15.494289 24.405567 -2.250716
15.451789 24.513065 -2.253216
15.431789 24.615566 -2.253216
15.389289 24.675568 -2.253216
15.371789 24.780567 -2.253216
-0.688211 -10.904433 -2.138216
-4.478210 -10.669435 -2.153216
-4.853210 -10.564433 -2.153216
-4.770710 -10.574433 -2.153216
-4.690711 -10.589435 -2.153216
-4.586544 -10.609433 -2.151549
-4.498210 -10.604434 -2.148216
-5.538211 -10.459434 -2.153216
-5.483211 -10.484435 -2.153216
-5.368211 -10.484433 -2.153216
-5.284877 -10.491099 -2.153216
-5.175711 -10.494433 -2.153216
-5.069877 -10.496099 -2.153216
-4.970711 -10.534434 -2.153216
-4.913211 -10.549434 -2.153216
-2.148211 -10.459434 -2.133216
-2.070711 -10.464435 -2.133216
-1.968211 -10.469434 -2.133216
-1.893211 -10.469434 -2.133216
-5.776544 -10.384433 -2.153216
-5.680711 -10.421935 -2.153216
-5.600711 -10.444434 -2.153216
-5.393210 -10.424434 -2.153216
-3.258211 -10.354434 -2.138216
-3.176544 -10.357768 -2.138216
-3.058211 -10.374434 -2.138216
-2.975711 -10.366935 -2.135716
-2.880711 -10.396934 -2.135716
-2.783211 -10.401101 -2.133216
-2.683211 -10.396934 -2.133216
-2.581544 -10.406100 -2.133216
-2.480711 -10.409434 -2.133216
-2.381544 -10.414433 -2.133216
-2.285711 -10.429433 -2.133216
-2.205711 -10.439433 -2.133216
-2.068211 -10.449433 -2.133216
-3.574877 -10.302768 -2.138216
-3.483211 -10.344434 -2.138216
-3.374877 -10.327767 -2.138216
-3.298211 -10.339435 -2.138216
-3.083210 -10.294435 -2.133216
-2.973211 -10.349433 -2.133216
-0.593211 -10.294435 -2.123216
-0.543211 -10.204434 -2.123216
-0.488211 -10.209434 -2.123216
-0.428211 -10.169435 -2.123216
-7.288211 -9.384433 -2.148216
-7.208211 -9.404433 -2.148216
-9.573211 -8.354434 -2.153216
6.476789 -8.414433 -2.103216
-9.553210 -8.259434 -2.153216
6.486789 -8.339434 -2.098216
-9.543211 -8.169434 -2.153216
6.581789 -8.179434 -2.098216
-9.523211 -8.074433 -2.148216
6.619289 -8.119433 -2.098216
6.681789 -8.134434 -2.098216
-9.513210 -7.984434 -2.148216
6.714290 -8.024434 -2.095716
6.801789 -7.954433 -2.093216
-9.493211 -7.889434 -2.143216
6.756789 -7.944434 -2.093216
6.829289 -7.874434 -2.093216
-9.463211 -7.769434 -2.143216
6.866789 -7.824433 -2.093216
6.904289 -7.776934 -2.093216
-9.438210 -7.664433 -2.138216
6.946789 -7.744433 -2.093216
6.991790 -7.711934 -2.093216
-9.458211 -7.591933 -2.138216
7.021790 -7.599433 -2.088216
-9.565711 -7.469434 -2.138216
-9.503211 -7.516933 -2.138216
-9.963211 -7.359434 -2.143216
-9.890711 -7.366933 -2.140716
-9.788210 -7.401100 -2.138216
-9.683211 -7.424434 -2.138216
-9.623211 -7.444434 -2.138216
-10.265711 -7.261933 -2.143216
-10.180711 -7.281934 -2.143216
-10.079877 -7.317767 -2.143216
-9.998211 -7.344434 -2.143216
-10.765711 -7.164433 -2.148216
-10.668210 -7.176934 -2.148216
-10.575710 -7.191934 -2.148216
-10.480711 -7.206933 -2.148216
-10.395711 -7.226933 -2.143216
-10.328211 -7.239433 -2.143216
6.736789 -6.779433 -2.068216
6.721789 -6.664433 -2.068216
-10.368211 -6.599434 -2.133216
6.721789 -6.579433 -2.063216
7.361789 -6.629434 -2.073216
6.734289 -6.481934 -2.063216
7.261789 -6.489433 -2.068216
6.756789 -6.414433 -2.063216
6.781789 -6.384434 -2.063216
7.036789 -6.399433 -2.063216
7.116789 -6.376933 -2.063216
7.176789 -6.384434 -2.063216
6.820123 -6.311100 -2.058216
6.906789 -6.306933 -2.058216
-9.783211 -5.839434 -2.113216
-9.498211 -5.444434 -2.098216
-9.445710 -5.296933 -2.095716
-9.418211 -5.179434 -2.093216
-9.408211 -5.091933 -2.093216
-9.388210 -4.989433 -2.088216
-9.378211 -4.924434 -2.088216
-9.360711 -4.819434 -2.088216
-9.345710 -4.701934 -2.083216
-9.333211 -4.609434 -2.083216
-9.320710 -4.516934 -2.080716
-9.310710 -4.401934 -2.078216
-9.313210 -4.304433 -2.078216
-9.353210 -4.194434 -2.078216
-9.323211 -4.244433 -2.078216
-9.400711 -4.099434 -2.073216
-9.433210 -3.984433 -2.073216
-9.428210 -3.881934 -2.073216
-9.418211 -3.804434 -2.068216
-9.410710 -3.721934 -2.068216
-9.400710 -3.616934 -2.068216
-9.395711 -3.519433 -2.065716
-9.395711 -3.426934 -2.063216
-9.358211 -3.296933 -2.060716
-9.303210 -3.169434 -2.058216
-9.288211 -3.086934 -2.058216
12.936790 -0.964434 -2.058216
12.936790 -0.929434 -2.058216
13.019289 -0.884434 -2.058216
13.081789 -0.869434 -2.058216
13.120539 -0.795683 -2.058216
13.241790 -0.779434 -2.058216
-12.248211 -0.684434 -2.078216
13.251789 -0.744434 -2.058216
13.324289 -0.734434 -2.060716
13.409289 -0.709434 -2.063216
13.476789 -0.671934 -2.063216
13.621789 -0.669434 -2.068216
13.711789 -0.661934 -2.068216
-12.243211 -0.644433 -2.078216
-12.228210 -0.589434 -2.078216
13.521790 -0.644433 -2.063216
13.819290 -0.610683 -2.068216
13.954289 -0.574433 -2.073216
-12.206544 -0.502767 -2.073216
14.026790 -0.517766 -2.073216
14.071790 -0.464434 -2.073216
-12.180711 -0.391933 -2.073216
14.125122 -0.421100 -2.073216
14.176789 -0.374434 -2.073216
-12.160710 -0.299434 -2.073216
14.236789 -0.308184 -2.073216
-12.140710 -0.216934 -2.068216
-12.128211 -0.154434 -2.068216
14.226789 -0.189434 -2.073216
14.341789 -0.154434 -2.073216
-12.113211 -0.086934 -2.068216
14.266789 -0.149434 -2.073216
14.296789 -0.094434 -2.073216
-12.095711 -0.004434 -2.068216
14.246789 0.010566 -2.073216
14.318457 -0.002767 -2.073216
-12.069878 0.102233 -2.064883
14.425123 0.068900 -2.073216
14.529289 0.110566 -2.078216
14.576789 0.145566 -2.078216
-12.045711 0.210567 -2.063216
14.641789 0.170567 -2.078216
14.701789 0.218066 -2.078216
14.801789 0.220566 -2.078216
-12.033211 0.288066 -2.063216
14.836789 0.265566 -2.080716
14.919290 0.300566 -2.083216
14.996789 0.320566 -2.083216
-12.033211 0.415566 -2.063216
-12.015710 0.368066 -2.063216
15.034289 0.363067 -2.083216
15.084289 0.415566 -2.083216
-11.988211 0.493066 -2.058216
15.131789 0.450566 -2.083216
15.216789 0.450566 -2.088216
15.281790 0.497233 -2.088216
-11.963211 0.593900 -2.058216
15.311790 0.560566 -2.088216
15.416789 0.573066 -2.088216
15.484289 0.620566 -2.090716
-11.945710 0.693066 -2.058216
15.548456 0.688900 -2.093216
15.606790 0.740566 -2.093216
15.641789 0.765566 -2.093216
15.730122 0.803899 -2.093216
15.821789 0.883900 -2.094882
15.871789 0.940566 -2.098216
15.879289 0.995566 -2.095716
15.866790 1.055566 -2.093216
15.916789 1.098066 -2.095716
16.029289 1.128066 -2.098216
16.266788 1.135566 -2.103216
16.406790 1.120566 -2.108216
16.526791 1.115566 -2.108216
16.651791 1.105567 -2.113216
16.816790 1.110566 -2.115716
16.951790 1.120566 -2.118216
17.036789 1.130566 -2.118216
16.121788 1.150566 -2.098216
17.046791 1.165566 -2.118216
17.104290 1.205566 -2.120716
17.146790 1.250566 -2.123216
17.199291 1.293066 -2.123216
17.281788 1.330566 -2.123216
17.339291 1.368066 -2.123216
17.426788 1.420567 -2.128216
17.520123 1.488900 -2.128216
17.628456 1.577233 -2.128216
17.691788 1.635566 -2.128216
17.749290 1.683066 -2.133216
17.801788 1.730567 -2.133216
17.851788 1.760566 -2.133216
17.920124 1.813900 -2.133216
18.019291 1.890566 -2.138216
18.081791 1.930566 -2.138216
18.134289 1.978066 -2.138216
18.191788 2.025566 -2.138216
18.231789 2.055566 -2.138216
18.291790 2.100566 -2.140716
18.346790 2.150566 -2.143216
18.416790 2.213900 -2.143216
18.496792 2.298066 -2.143216
18.541790 2.350566 -2.143216
18.618458 2.412233 -2.148216
18.718456 2.513900 -2.148216
18.821789 2.590567 -2.148216
18.886791 2.640566 -2.153216
18.949291 2.688066 -2.153216
19.036789 2.730567 -2.153216
19.061790 2.765566 -2.153216
19.116791 2.800566 -2.153216
-13.158211 3.320566 -2.063216
-13.068211 3.310566 -2.058216
-12.993211 3.295566 -2.058216
-12.903211 3.285566 -2.058216
-3.243211 10.070566 -2.088216
-3.175711 10.073899 -2.086549
-3.072211 10.110066 -2.082716
-2.971847 10.185112 -2.079125
-2.972210 10.304566 -2.085216
18.911789 11.625566 -2.153216
18.986790 11.605566 -2.153216
18.845123 11.698900 -2.153216
18.754292 11.823067 -2.153216
18.781788 11.765566 -2.153216
18.709290 11.895567 -2.150716
18.656788 12.030566 -2.148216
18.686790 11.975567 -2.150716
18.621792 12.105566 -2.148216
18.561790 12.175566 -2.148216
18.576790 12.220566 -2.148216
18.581791 12.283066 -2.148216
18.593456 12.397233 -2.153216
18.523457 12.503900 -2.149882
18.479290 12.598066 -2.148216
18.521790 12.695566 -2.153216
18.515121 12.802233 -2.153216
18.531792 12.918066 -2.153216
18.536789 13.005567 -2.153216
5.466789 13.060566 -2.078216
5.525123 13.078899 -2.078216
18.556789 13.080566 -2.153216
6.451789 13.910566 -2.138216
6.510123 13.903900 -2.138216
6.339290 13.993067 -2.135716
2.440539 14.113066 -2.063216
2.481789 14.120566 -2.063216
3.921789 15.740566 -2.153216
3.328039 15.838067 -2.153216
3.428789 15.817566 -2.153216
3.520539 15.796817 -2.153216
3.611789 15.781567 -2.153216
3.718789 15.778566 -2.153216
3.818039 15.768066 -2.153216
2.720539 15.915566 -2.148216
2.921789 15.901567 -2.150216
3.023789 15.894567 -2.152216
3.115539 15.878066 -2.153216
3.218456 15.865566 -2.153216
3.336789 15.870566 -2.153216
2.125539 16.039318 -2.149466
2.216789 16.026566 -2.149216
2.316789 16.008566 -2.148216
2.416790 15.990565 -2.148216
2.517789 15.970566 -2.148216
2.620789 15.961566 -2.148216
2.701789 15.955566 -2.153216
-12.471544 16.100567 -2.101549
1.461789 16.145565 -2.153216
1.536789 16.141815 -2.153216
1.626789 16.127567 -2.153216
1.719289 16.111816 -2.153216
1.810789 16.096565 -2.153216
1.911789 16.078568 -2.153216
2.013789 16.064568 -2.153216
2.076789 16.050568 -2.148216
-12.463211 16.180565 -2.103216
1.031789 16.215567 -2.153216
1.114789 16.212566 -2.153216
1.216789 16.193565 -2.153216
1.321789 16.187565 -2.153216
1.411789 16.168068 -2.153216
1.486789 16.165565 -2.153216
10.411789 22.515566 -2.148216
10.626789 22.545567 -2.148216
9.916789 22.625566 -2.143216
10.006789 22.583065 -2.143216
10.131789 22.633066 -2.143216
10.209290 22.605566 -2.143216
10.291789 22.585567 -2.145716
10.386789 22.590565 -2.148216
10.511789 22.590567 -2.148216
10.611790 22.605566 -2.148216
10.714290 22.568066 -2.150716
10.821790 22.585567 -2.153216
10.911790 22.578068 -2.153216
11.014289 22.580566 -2.153216
11.081789 22.580566 -2.153216
9.066790 22.745567 -2.133216
9.134290 22.740566 -2.138216
9.211789 22.720566 -2.138216
9.321790 22.712234 -2.138216
9.426789 22.695566 -2.138216
9.521789 22.705566 -2.138216
9.621789 22.677233 -2.138216
9.726789 22.660566 -2.143216
8.524289 22.838066 -2.133216
8.621790 22.822233 -2.133216
8.724289 22.808067 -2.133216
8.809290 22.798065 -2.133216
8.911789 22.783899 -2.133216
9.016789 22.770565 -2.133216
9.866790 22.790565 -2.143216
7.481790 22.940567 -2.123216
8.026789 22.932232 -2.128216
8.126789 22.915565 -2.128216
8.225122 22.898899 -2.128216
8.321789 22.878067 -2.128216
8.421789 22.855564 -2.133216
7.031790 23.003067 -2.123216
7.114289 23.003067 -2.123216
7.276789 23.045567 -2.123216
7.541790 22.990566 -2.123216
7.601789 22.975567 -2.125716
7.711790 22.995567 -2.128216
7.811790 22.978065 -2.128216
7.910123 22.957233 -2.128216
7.214289 23.050568 -2.123216
7.339289 23.055565 -2.123216
7.416790 23.090565 -2.128216
4.796789 -6.619433 -2.048216
4.839290 -6.469434 -2.048216
4.901790 -6.469434 -2.048216
4.954289 -6.414433 -2.048216
4.891789 -6.054434 -2.038216
4.891789 -5.954433 -2.038216
5.139289 -5.981934 -2.038216
5.194289 -5.964434 -2.038216
5.308456 -5.964434 -2.038216
4.929289 -5.914433 -2.035716
5.003456 -5.901100 -2.034883
5.076789 -5.939434 -2.038216
5.236789 -5.939434 -2.038216
8.586790 -3.407766 -2.023216
8.620123 -3.311101 -2.019882
8.649289 -3.229434 -2.018216
8.653456 -3.119433 -2.018216
8.686790 -3.069434 -2.018216
-9.280711 -2.994433 -2.053216
8.698456 -2.991100 -2.014882
-9.300711 -2.919435 -2.053216
5.636789 -2.876933 -1.975716
8.738456 -2.907767 -2.013216
8.786789 -2.874434 -2.013216
-9.285710 -2.821934 -2.053216
8.788456 -2.789433 -2.013216
8.871790 -2.759434 -2.013216
-9.268210 -2.719434 -2.050716
5.581789 -2.674434 -1.973216
8.831789 -2.749434 -2.013216
8.935539 -2.726933 -2.013216
9.020123 -2.677768 -2.013216
-9.255711 -2.619433 -2.048216
5.556789 -2.569434 -1.968216
9.103789 -2.602433 -2.013216
-9.243211 -2.521934 -2.048216
5.536789 -2.469434 -1.968216
9.161789 -2.539433 -2.013216
9.218456 -2.521101 -2.013216
9.306789 -2.492767 -2.014882
-9.225711 -2.421934 -2.043216
7.766789 -2.379434 -1.993216
9.346789 -2.431933 -2.013216
9.430122 -2.419434 -2.018216
9.513456 -2.387767 -2.018216
10.141789 -2.379434 -2.028216
10.226789 -2.404433 -2.028216
10.531789 -2.376933 -2.033216
10.641789 -2.394434 -2.035716
10.726789 -2.374434 -2.038216
10.791789 -2.354434 -2.038216
-9.208211 -2.304434 -2.043216
5.501790 -2.279434 -1.963216
9.558456 -2.311100 -2.018216
9.626789 -2.299434 -2.018216
9.713456 -2.311100 -2.018216
9.961789 -2.324433 -2.023216
10.036790 -2.336934 -2.023216
10.346789 -2.276934 -2.028216
10.846789 -2.341933 -2.038216
10.918456 -2.309435 -2.038216
11.044290 -2.321934 -2.040716
-9.200711 -2.191934 -2.040716
5.533456 -2.224434 -1.963216
5.584290 -2.181933 -1.960716
9.746789 -2.244433 -2.018216
9.826789 -2.241934 -2.018216
10.071790 -2.189434 -2.023216
11.051789 -2.184434 -2.038216
11.101789 -2.184434 -2.038216
11.226789 -2.196934 -2.043216
11.301789 -2.204433 -2.043216
11.416789 -2.159433 -2.043216
-9.185710 -2.099433 -2.038216
5.586789 -2.109434 -1.958216
10.001789 -2.074433 -2.018216
10.111790 -2.109434 -2.023216
11.106790 -2.149434 -2.038216
11.304290 -2.144434 -2.043216
11.376789 -2.059434 -2.043216
-9.168211 -2.004434 -2.038216
5.561790 -2.019434 -1.958216
5.591789 -2.024434 -1.958216
10.001789 -2.039433 -2.018216
11.296789 -1.954433 -2.038216
-9.158211 -1.911934 -2.035716
5.626790 -1.942767 -1.958216
5.696789 -1.932768 -1.958216
7.396790 -1.914433 -1.978216
11.304290 -1.899434 -2.038216
-9.139877 -1.797768 -2.033216
7.236789 -1.774434 -1.973216
7.306789 -1.829433 -1.973216
11.339290 -1.849434 -2.038216
-9.125710 -1.689433 -2.033216
7.146790 -1.689434 -1.968216
11.289289 -1.689433 -2.034466
11.421789 -1.659433 -2.038216
11.498455 -1.701099 -2.038216
11.776790 -1.674434 -2.043216
-9.113211 -1.601933 -2.028216
6.741789 -1.559434 -1.963216
6.801789 -1.562767 -1.963216
6.921789 -1.594434 -1.963216
7.021790 -1.619433 -1.968216
11.544290 -1.624434 -2.038216
11.601789 -1.609434 -2.038216
11.736790 -1.617767 -2.043216
11.776790 -1.554434 -2.043216
-9.103210 -1.514434 -2.028216
6.423039 -1.506934 -1.958216
6.520123 -1.511101 -1.958216
6.610123 -1.526100 -1.958216
6.686790 -1.534433 -1.960716
11.821789 -1.514434 -2.043216
-9.086544 -1.402767 -2.028216
11.851789 -1.401934 -2.043216
-9.075711 -1.301933 -2.023216
11.851789 -1.304434 -2.038216
11.926789 -1.319434 -2.043216
11.996789 -1.319434 -2.043216
12.081790 -1.266933 -2.043216
-9.063210 -1.216933 -2.023216
11.976789 -1.249434 -2.043216
12.101789 -1.204433 -2.043216
12.210123 -1.187767 -2.044883
12.346789 -1.189434 -2.048216
-9.045711 -1.126934 -2.023216
12.271790 -1.084434 -2.043216
12.416789 -1.129434 -2.048216
12.514289 -1.116934 -2.048216
12.625122 -1.101100 -2.053216
12.716789 -1.084434 -2.053216
-8.993211 -0.994434 -2.018216
12.744289 -1.044434 -2.053216
12.826789 -1.004434 -2.053216
12.891789 -0.969434 -2.053216
-8.975711 -0.889434 -2.018216
12.911789 -0.869434 -2.053216
-8.963210 -0.806934 -2.015716
-8.951544 -0.711101 -2.013216
-8.939878 -0.596100 -2.013216
9.226789 -0.579434 -1.983216
-8.943211 -0.529434 -2.013216
-8.928210 -0.484434 -2.008216
-8.933210 -0.449434 -2.008216
-8.928210 -0.396934 -2.008216
-8.923210 -0.306100 -2.008216
-8.934877 -0.216100 -2.008216
-8.951961 -0.108184 -2.006966
-8.979461 0.003066 -2.003216
-9.079461 0.101816 -2.003216
-9.028211 0.050566 -2.003216
-9.265711 0.235566 -2.008216
-9.174460 0.196816 -2.008216
-9.118211 0.155566 -2.003216
-9.673211 0.335567 -2.013216
-9.588210 0.323066 -2.013216
-9.489877 0.302233 -2.011549
-9.376544 0.277233 -2.008216
-9.308210 0.255566 -2.008216
-10.285710 0.403067 -2.023216
-10.195710 0.388066 -2.023216
-10.080710 0.388066 -2.023216
-9.988210 0.375566 -2.018216
-9.893210 0.368066 -2.018216
-9.779877 0.353899 -2.016549
-11.933210 0.750566 -2.053216
-11.918211 0.810566 -2.053216
-11.898211 0.893066 -2.053216
-11.876543 0.988900 -2.053216
-11.851543 1.105567 -2.049882
-11.833211 1.180566 -2.048216
-11.828211 1.220566 -2.048216
-11.811543 1.295566 -2.048216
-11.783211 1.408900 -2.046549
-11.765710 1.500566 -2.043216
-11.746544 1.592233 -2.043216
-11.723210 1.703899 -2.043216
-11.699877 1.810566 -2.039882
-11.675711 1.903066 -2.038216
-11.663210 1.990566 -2.038216
-11.644876 2.095566 -2.038216
-11.633210 2.165566 -2.038216
-11.615710 2.218066 -2.033216
-11.604877 2.303899 -2.033216
-11.581544 2.405566 -2.033216
-11.561543 2.507233 -2.033216
-11.546544 2.607233 -2.031549
-11.524877 2.707233 -2.028216
-11.511543 2.805566 -2.028216
-11.501543 2.900567 -2.028216
-11.763210 3.035566 -2.033216
-11.685711 3.013066 -2.030716
-11.573211 2.985566 -2.028216
-11.523211 2.955566 -2.028216
-12.233211 3.145566 -2.043216
-12.168211 3.135566 -2.043216
-12.080710 3.113066 -2.038216
-11.960711 3.083066 -2.038216
-11.873211 3.065566 -2.033216
-11.823211 3.050566 -2.033216
-12.693211 3.245566 -2.053216
-12.583211 3.225566 -2.048216
-12.493211 3.205566 -2.048216
-12.388211 3.183066 -2.045716
-12.293211 3.160566 -2.043216
-12.833211 3.275566 -2.053216
-12.748211 3.265566 -2.053216
-3.266960 10.099316 -1.969466
-3.168211 10.075566 -1.964882
-3.070989 10.088900 -1.963216
-3.019877 10.135567 -1.963216
-2.987100 10.196678 -1.963216
-2.992211 10.306566 -1.965216
-3.083210 10.430567 -1.973216
-3.133211 10.490566 -1.978216
-3.113211 10.485566 -1.973216
10.196790 13.185566 -1.983216
10.281790 13.215567 -1.983216
5.566789 -1.924434 -1.953216
5.701789 -1.844434 -1.953216
5.709289 -1.698600 -1.953216
5.766789 -1.649434 -1.953216
5.824789 -1.612434 -1.953216
5.928040 -1.589434 -1.953216
5.976789 -1.569434 -1.953216
6.020539 -1.531934 -1.953216
6.111790 -1.492434 -1.953216
6.228040 -1.489433 -1.953216
6.320122 -1.489433 -1.953216
8.941790 11.785566 -1.938216
5.506789 13.082233 -1.898216
7.736789 13.505567 -1.943216
7.801789 13.495566 -1.943216
7.694289 13.553066 -1.943216
6.339290 13.988066 -1.928216
2.434789 14.119566 -1.893216
2.481789 14.100567 -1.893216
3.456789 15.845567 -1.938216
3.521789 15.836566 -1.938216
3.626789 15.828567 -1.938216
3.718039 15.808066 -1.938216
3.815789 15.808566 -1.938216
3.913039 15.803066 -1.938216
3.984289 15.820566 -1.940716
2.926789 15.925567 -1.938216
3.028789 15.907566 -1.938216
3.121789 15.893066 -1.938216
3.214789 15.889567 -1.938216
3.315789 15.866566 -1.938216
3.408039 15.855566 -1.938216
2.218039 16.039316 -1.938216
2.321789 16.025566 -1.938216
2.421789 16.005566 -1.938216
2.521789 15.989566 -1.938216
2.622789 15.970566 -1.938216
2.716789 15.958066 -1.938216
4.228456 15.973900 -1.946549
4.300123 15.978899 -1.948216
1.651789 16.145565 -1.938216
1.711789 16.132566 -1.938216
1.812789 16.116566 -1.938216
1.916789 16.091568 -1.938216
2.016789 16.077568 -1.938216
2.116789 16.060566 -1.938216
2.221789 16.050568 -1.938216
1.156789 16.235565 -1.938216
1.220789 16.229565 -1.938216
1.322789 16.208567 -1.938216
1.426789 16.188566 -1.938216
1.527789 16.164566 -1.938216
1.611789 16.157232 -1.938216
0.486789 16.340567 -1.943216
0.718789 16.335567 -1.943216
0.823789 16.309566 -1.938216
0.919289 16.286816 -1.938216
1.011789 16.274567 -1.938216
1.106789 16.254316 -1.938216
0.466789 16.380566 -1.943216
0.526789 16.382233 -1.943216
0.612789 16.365566 -1.943216
0.424289 16.493065 -1.943216
-3.138211 9.940566 -1.843216
-3.086544 9.930567 -1.838216
-3.284461 9.996817 -1.843216
-3.228210 9.990566 -1.843216
-3.070711 10.003066 -1.840716
-2.946961 10.005567 -1.838216
-2.928211 10.010567 -1.838216
-3.265711 10.113066 -1.845716
-3.159461 10.075566 -1.843216
-3.113211 10.080566 -1.843216
-3.004210 10.126566 -1.842216
-2.961211 10.159567 -1.841216
-2.919877 10.209733 -1.840716
-2.899878 10.304455 -1.843216
-2.883211 10.375566 -1.843216
4.761789 -22.554432 -1.723216
4.831789 -22.569435 -1.723216
4.934289 -22.574436 -1.723216
5.036789 -22.584435 -1.723216
3.924289 -22.454433 -1.723216
4.016789 -22.459435 -1.723216
4.121789 -22.479435 -1.723216
4.221789 -22.494434 -1.723216
4.324289 -22.501934 -1.723216
4.421789 -22.519432 -1.723216
4.526789 -22.524433 -1.723216
4.631789 -22.534435 -1.723216
4.691790 -22.549435 -1.723216
5.091789 -22.489433 -1.723216
3.156789 -22.354435 -1.723216
3.221789 -22.369434 -1.723216
3.319289 -22.379433 -1.723216
3.416789 -22.389435 -1.723216
3.519289 -22.399433 -1.723216
3.621789 -22.424435 -1.723216
3.719289 -22.424435 -1.723216
3.816789 -22.434433 -1.723216
2.361789 -22.264435 -1.723216
2.426789 -22.269432 -1.723216
2.529289 -22.281933 -1.723216
2.626789 -22.284435 -1.723216
2.724289 -22.299435 -1.723216
2.826789 -22.324432 -1.723216
2.924289 -22.321934 -1.723216
3.021789 -22.339436 -1.723216
3.086789 -22.349434 -1.723216
6.121789 -22.254433 -1.723216
6.226789 -22.254433 -1.723216
2.226789 -22.154434 -1.723216
2.296789 -22.249435 -1.723216
5.111789 -22.174435 -1.723216
5.171789 -22.164433 -1.723216
5.706789 -22.189434 -1.723216
5.816790 -22.229435 -1.723216
5.921789 -22.239433 -1.723216
6.019289 -22.249435 -1.723216
6.321789 -22.244434 -1.723216
6.381789 -22.194435 -1.723216
5.236789 -22.089436 -1.723216
5.501790 -22.144432 -1.723216
5.601789 -22.144432 -1.723216
6.441789 -22.149433 -1.723216
6.496789 -22.084435 -1.723216
6.546789 -22.004433 -1.723216
6.591789 -21.914433 -1.723216
6.646790 -21.824432 -1.723216
6.696789 -21.759434 -1.723216
1.724289 -21.654434 -1.723216
1.821789 -21.669434 -1.723216
1.916789 -21.679436 -1.723216
6.741789 -21.659435 -1.723216
1.121789 -21.584435 -1.723216
1.216789 -21.596935 -1.723216
1.316789 -21.604435 -1.723216
1.409289 -21.614433 -1.723216
1.536789 -21.634434 -1.723216
1.631789 -21.649433 -1.723216
5.346789 -21.569435 -1.723216
6.801789 -21.604435 -1.723216
0.106789 -21.459435 -1.723216
0.201789 -21.464436 -1.723216
0.329289 -21.481934 -1.723216
0.421789 -21.484432 -1.723216
0.519289 -21.496933 -1.723216
0.616789 -21.509434 -1.723216
0.706789 -21.521935 -1.723216
0.834289 -21.534435 -1.723216
0.931789 -21.549435 -1.723216
1.026789 -21.534435 -1.723216
5.206789 -21.489433 -1.723216
5.271790 -21.499435 -1.723216
6.851789 -21.534435 -1.723216
-0.180711 -21.416935 -1.723216
-0.083211 -21.434433 -1.723216
0.014289 -21.441933 -1.723216
6.919290 -21.401936 -1.723216
-1.178211 -21.276936 -1.723216
2.001789 -21.314434 -1.723216
6.986789 -21.239433 -1.723216
2.056789 -21.084435 -1.723216
2.116789 -21.054432 -1.723216
7.026789 -21.114433 -1.723216
7.011789 -20.749435 -1.723216
7.046789 -20.629433 -1.723216
7.081789 -20.489433 -1.723216
7.116789 -20.359432 -1.723216
7.156789 -20.274433 -1.723216
7.196789 -20.159435 -1.723216
7.241789 -20.069435 -1.723216
7.281789 -19.959435 -1.723216
7.321789 -19.854435 -1.723216
7.351789 -19.724434 -1.723216
7.391789 -19.634434 -1.723216
7.426789 -19.524433 -1.723216
7.466789 -19.429432 -1.723216
-0.398211 -17.514435 -1.723216
-0.323211 -17.494434 -1.723216
-0.673211 -17.124435 -1.723216
-0.443211 -15.179433 -1.723216
-0.368211 -15.171935 -1.723216
-0.638211 -15.144433 -1.723216
-0.588211 -15.114434 -1.723216
-0.133211 -14.829434 -1.723216
-0.058211 -14.836934 -1.723216
0.021789 -14.774434 -1.723216
-9.813210 -13.844434 -1.723216
-9.783211 -13.679433 -1.723216
-10.568211 -13.579434 -1.723216
-9.763210 -13.529433 -1.723216
-10.538211 -13.424434 -1.723216
-9.743211 -13.374434 -1.723216
-10.518210 -13.274434 -1.723216
-1.665711 -13.264434 -1.723216
-1.573211 -13.271934 -1.723216
-1.483211 -13.284434 -1.723216
-1.390711 -13.294435 -1.723216
-1.278211 -13.302768 -1.723216
-1.165711 -13.324435 -1.723216
-1.075711 -13.334434 -1.723216
-1.008211 -13.299434 -1.723216
-9.693211 -13.179433 -1.723216
-2.133211 -13.194434 -1.723216
-2.065711 -13.206935 -1.723216
-1.975711 -13.219434 -1.723216
-1.885711 -13.229434 -1.723216
-1.798211 -13.239432 -1.723216
-1.728211 -13.249434 -1.723216
-10.493211 -13.129434 -1.723216
-9.678210 -13.039433 -1.723216
-10.438210 -12.929433 -1.723216
-9.658211 -12.889434 -1.723216
-4.903211 -12.886933 -1.723216
-4.798211 -12.861934 -1.723216
-4.681544 -12.876101 -1.723216
-4.568211 -12.889434 -1.723216
-4.478210 -12.911933 -1.723216
-4.408211 -12.899434 -1.723216
-10.423211 -12.809434 -1.723216
-4.958210 -12.834434 -1.723216
-9.633210 -12.744433 -1.723216
-10.383210 -12.639434 -1.723216
-9.613211 -12.599433 -1.723216
-7.543211 -12.564433 -1.723216
-7.488211 -12.559434 -1.723216
-10.363211 -12.499434 -1.723216
-9.593210 -12.464435 -1.723216
-7.558210 -12.484433 -1.723216
-7.405710 -12.539435 -1.723216
-7.328211 -12.544435 -1.723216
-10.323211 -12.324433 -1.723216
-9.578211 -12.334434 -1.723216
-7.538211 -12.319434 -1.723216
-10.318211 -12.224433 -1.723216
-9.543211 -12.169435 -1.723216
-7.523211 -12.164433 -1.723216
-10.288211 -12.079434 -1.723216
-10.273211 -11.954434 -1.723216
-9.533211 -12.049434 -1.723216
-7.503211 -12.004434 -1.723216
-9.513210 -11.909434 -1.723216
-10.243211 -11.814433 -1.723216
-9.493211 -11.779433 -1.723216
-7.478210 -11.844434 -1.723216
-10.223210 -11.679433 -1.723216
-9.478210 -11.654433 -1.723216
-7.463211 -11.704434 -1.723216
-10.203211 -11.559434 -1.723216
-7.453211 -11.559434 -1.723216
-9.448211 -11.504434 -1.723216
-10.178210 -11.429433 -1.723216
-9.438210 -11.389434 -1.723216
-7.428210 -11.394433 -1.723216
-2.318211 -11.379434 -1.723216
-10.148211 -11.284434 -1.723216
-9.418211 -11.264434 -1.723216
-7.418211 -11.269433 -1.723216
-2.258211 -11.269433 -1.723216
-10.128211 -11.154433 -1.723216
-2.198211 -11.184434 -1.723216
-9.403211 -11.134433 -1.723216
-7.398211 -11.124434 -1.723216
-10.103210 -11.024434 -1.723216
-9.378211 -11.009433 -1.723216
-7.383210 -10.979434 -1.723216
-6.405711 -10.981933 -1.723216
-2.128211 -11.034434 -1.723216
-10.088211 -10.914433 -1.723216
-4.563210 -10.939433 -1.723216
-2.263211 -10.854434 -1.723216
-2.063211 -10.894433 -1.723216
-10.063210 -10.789433 -1.723216
-7.363211 -10.839435 -1.723216
-6.268210 -10.814433 -1.723216
-6.198211 -10.754434 -1.723216
-2.003211 -10.759433 -1.723216
-10.038211 -10.659434 -1.723216
-7.353210 -10.709434 -1.723216
-1.948211 -10.679433 -1.723216
-0.673211 -10.729434 -1.723216
-7.333211 -10.564433 -1.723216
-5.133211 -10.554433 -1.723216
-5.075710 -10.574435 -1.723216
-4.963211 -10.569434 -1.723216
-4.888211 -10.601100 -1.723216
-4.785711 -10.604434 -1.723216
-4.676544 -10.612765 -1.723216
-4.583210 -10.594434 -1.723216
-4.508211 -10.619433 -1.723216
-1.893211 -10.579434 -1.723216
-10.013210 -10.529433 -1.723216
-6.263211 -10.469434 -1.723216
-6.048211 -10.504434 -1.723216
-5.785711 -10.461934 -1.723216
-5.681544 -10.477765 -1.723216
-5.570711 -10.474433 -1.723216
-5.338211 -10.509433 -1.723216
-5.280711 -10.531934 -1.723216
-5.195711 -10.536933 -1.723216
-4.993211 -10.529433 -1.723216
-4.528211 -10.549434 -1.723216
-2.453211 -10.456935 -1.723216
-2.370711 -10.464435 -1.723216
-2.276544 -10.481099 -1.723216
-9.998211 -10.414433 -1.723216
-7.298211 -10.389434 -1.723216
-6.278211 -10.394433 -1.723216
-5.876544 -10.404435 -1.723216
-5.460711 -10.419433 -1.723216
-5.363211 -10.396934 -1.723216
-3.578211 -10.384433 -1.723216
-3.474877 -10.382768 -1.723216
-3.370710 -10.386933 -1.723216
-3.273211 -10.396100 -1.723216
-3.170711 -10.401935 -1.723216
-3.088211 -10.396934 -1.723216
-3.008211 -10.416934 -1.723216
-2.866544 -10.409434 -1.723216
-2.773211 -10.449433 -1.723216
-2.708211 -10.409434 -1.723216
-2.586544 -10.414433 -1.723216
-2.513211 -10.449433 -1.723216
-9.973210 -10.299434 -1.723216
-7.293211 -10.279433 -1.723216
-6.333210 -10.309434 -1.723216
-6.298211 -10.329434 -1.723216
-3.653211 -10.274434 -1.723216
-3.628211 -10.334434 -1.723216
-2.928211 -10.334434 -1.723216
-2.653211 -10.344434 -1.723216
-9.958211 -10.189433 -1.723216
-0.570711 -10.231933 -1.723216
-0.493211 -10.239434 -1.723216
-9.938210 -10.069434 -1.723216
-7.448211 -10.114434 -1.723216
-7.375710 -10.111934 -1.723216
-7.275710 -10.104434 -1.723216
-7.428210 -9.984433 -1.723216
-9.893210 -9.914433 -1.723216
-9.893210 -9.829434 -1.723216
-9.878211 -9.724433 -1.723216
-9.863211 -9.624434 -1.723216
-9.808210 -9.464435 -1.723216
-9.803210 -9.374434 -1.723216
-7.350711 -9.406934 -1.723216
-7.270711 -9.431933 -1.723216
-7.203211 -9.434434 -1.723216
-9.783211 -9.259433 -1.723216
-9.763210 -9.154433 -1.723216
-22.653210 -9.034433 -1.723216
-9.743211 -9.049434 -1.723216
-9.723210 -8.954433 -1.723216
-22.633209 -8.944434 -1.723216
-22.618210 -8.859434 -1.723216
-22.603210 -8.774434 -1.723216
-9.713211 -8.849434 -1.723216
-22.593212 -8.689434 -1.723216
-13.288211 -8.684434 -1.723216
-9.693211 -8.711934 -1.723216
-22.583210 -8.604434 -1.723216
-13.283211 -8.604434 -1.723216
-22.563210 -8.519434 -1.723216
-13.263210 -8.519434 -1.723216
-9.655711 -8.504434 -1.723216
-22.555710 -8.399434 -1.723216
-13.243211 -8.429434 -1.723216
-9.643210 -8.379434 -1.723216
-22.533211 -8.274434 -1.723216
-13.233211 -8.349434 -1.723216
-13.228210 -8.269434 -1.723216
-9.618211 -8.274434 -1.723216
-22.518211 -8.189434 -1.723216
-13.218210 -8.189434 -1.723216
-9.603210 -8.179434 -1.723216
-22.508209 -8.114433 -1.723216
-13.198211 -8.109434 -1.723216
-9.583211 -8.084434 -1.723216
-22.493210 -8.029433 -1.723216
-13.185710 -7.994433 -1.723216
-9.573211 -7.989433 -1.723216
-22.478210 -7.904433 -1.723216
-13.173211 -7.879434 -1.723216
-9.543211 -7.879434 -1.723216
-22.463211 -7.784433 -1.723216
-13.158211 -7.794434 -1.723216
-9.538211 -7.804434 -1.723216
-22.448212 -7.709434 -1.723216
-13.143210 -7.719434 -1.723216
-9.518210 -7.699433 -1.723216
-22.433212 -7.624434 -1.723216
-13.133210 -7.644434 -1.723216
-13.118211 -7.559434 -1.723216
-9.515710 -7.599433 -1.723216
-22.415710 -7.504434 -1.723216
-13.113211 -7.489433 -1.723216
-9.668210 -7.466933 -1.723216
-9.581544 -7.519434 -1.723216
-22.398212 -7.384434 -1.723216
-13.103210 -7.414433 -1.723216
-10.058210 -7.354434 -1.723216
-9.978210 -7.379435 -1.723216
-9.870710 -7.404433 -1.723216
-9.785710 -7.424434 -1.723216
-9.728210 -7.444434 -1.723216
-22.388210 -7.309434 -1.723216
-13.080710 -7.301934 -1.723216
-11.953211 -7.284433 -1.723216
-10.378211 -7.261933 -1.723216
-10.285710 -7.284433 -1.723216
-10.184877 -7.316100 -1.723216
-10.098210 -7.339434 -1.723216
-22.380711 -7.196934 -1.723216
-13.063210 -7.184434 -1.723216
-10.980711 -7.164433 -1.723216
-10.885711 -7.179434 -1.723216
-10.783210 -7.184434 -1.723216
-10.690711 -7.201934 -1.723216
-10.576544 -7.222767 -1.723216
-10.458211 -7.239434 -1.723216
-22.363209 -7.074433 -1.723216
-13.063210 -7.124434 -1.723216
-11.743211 -7.119433 -1.723216
-11.658210 -7.119433 -1.723216
-11.578211 -7.124434 -1.723216
-11.505711 -7.134434 -1.723216
-11.390711 -7.129434 -1.723216
-11.290710 -7.141934 -1.723216
-11.178210 -7.144434 -1.723216
-11.080710 -7.149434 -1.723216
-13.053210 -7.014434 -1.723216
-13.033211 -6.909433 -1.723216
4.836789 -6.889434 -1.723216
-13.013210 -6.824433 -1.723216
4.826789 -6.836934 -1.723216
28.321789 -6.584434 -1.723216
4.821789 -6.469434 -1.723216
28.424290 -6.516933 -1.723216
28.536789 -6.464434 -1.723216
4.823456 -6.406100 -1.723216
28.624290 -6.389434 -1.723216
4.861790 -6.284433 -1.723216
28.671791 -6.294434 -1.723216
28.776791 -6.269434 -1.723216
4.866789 -6.179434 -1.723216
28.841789 -6.189433 -1.723216
29.031788 -6.164433 -1.723216
4.861790 -6.064434 -1.723216
29.101788 -6.119433 -1.723216
29.211788 -6.094434 -1.723216
29.336788 -6.074433 -1.723216
4.903456 -5.994433 -1.723216
29.444290 -6.006934 -1.723216
4.936790 -5.889434 -1.723216
29.519291 -5.886933 -1.723216
4.949289 -5.779433 -1.723216
29.616791 -5.779433 -1.723216
4.966789 -5.704433 -1.723216
4.996789 -5.684434 -1.723216
29.691788 -5.694434 -1.723216
5.031789 -5.602767 -1.723216
5.076789 -5.559434 -1.723216
29.756790 -5.649434 -1.723216
29.816788 -5.599434 -1.723216
5.115122 -5.487766 -1.723216
29.766788 -5.504434 -1.723216
5.161789 -5.439434 -1.723216
5.206789 -5.394434 -1.723216
29.794289 -5.399434 -1.723216
5.226789 -5.279433 -1.723216
29.836788 -5.299434 -1.723216
5.239289 -5.181933 -1.723216
29.849289 -5.194434 -1.723216
5.261789 -5.114433 -1.723216
5.271790 -5.054434 -1.723216
29.906788 -5.104434 -1.723216
5.281789 -4.999434 -1.723216
29.911789 -5.029433 -1.723216
5.289289 -4.899434 -1.723216
29.899288 -4.906934 -1.723216
5.304289 -4.779433 -1.723216
29.881790 -4.794434 -1.723216
5.316789 -4.689434 -1.723216
29.931789 -4.734434 -1.723216
29.971790 -4.674434 -1.723216
5.324289 -4.596934 -1.723216
9.566790 -4.584434 -1.723216
29.946789 -4.589434 -1.723216
30.051788 -4.564434 -1.723216
5.336789 -4.509434 -1.723216
9.576789 -4.514434 -1.723216
30.126789 -4.514434 -1.723216
5.346789 -4.416934 -1.723216
9.576789 -4.409434 -1.723216
30.134289 -4.404433 -1.723216
5.354290 -4.301934 -1.723216
9.588455 -4.296101 -1.723216
30.136791 -4.289433 -1.723216
5.371789 -4.189433 -1.723216
9.599290 -4.181933 -1.723216
30.179291 -4.194434 -1.723216
5.386789 -4.114433 -1.723216
9.614289 -4.096933 -1.723216
30.121788 -4.064434 -1.723216
5.394289 -4.034433 -1.723216
9.621789 -4.004434 -1.723216
30.101788 -3.979434 -1.723216
5.404289 -3.914433 -1.723216
9.638456 -3.901100 -1.723216
21.834290 -3.871934 -1.723216
30.096790 -3.909433 -1.723216
5.414289 -3.804433 -1.723216
9.651790 -3.791934 -1.723216
20.686790 -3.759434 -1.723216
20.831791 -3.774434 -1.723216
21.131790 -3.769434 -1.723216
21.346790 -3.824433 -1.723216
21.436790 -3.809434 -1.723216
21.576790 -3.824433 -1.723216
30.124290 -3.804434 -1.723216
5.426789 -3.701934 -1.723216
9.659289 -3.706934 -1.723216
20.261791 -3.694434 -1.723216
20.401791 -3.709434 -1.723216
20.521790 -3.719434 -1.723216
20.871788 -3.739433 -1.723216
20.971790 -3.739433 -1.723216
30.111790 -3.689434 -1.723216
5.441790 -3.601933 -1.723216
9.675122 -3.604434 -1.723216
19.291790 -3.589434 -1.723216
19.396790 -3.594434 -1.723216
19.506790 -3.604434 -1.723216
19.651791 -3.629434 -1.723216
19.761791 -3.634434 -1.723216
19.796791 -3.599434 -1.723216
20.066788 -3.639434 -1.723216
30.106789 -3.609434 -1.723216
5.454289 -3.504434 -1.723216
9.686790 -3.501934 -1.723216
18.346790 -3.459434 -1.723216
18.436790 -3.464434 -1.723216
18.516788 -3.459434 -1.723216
18.616791 -3.464434 -1.723216
18.701790 -3.464434 -1.723216
19.026791 -3.489433 -1.723216
19.756790 -3.524434 -1.723216
30.086792 -3.494433 -1.723216
5.464289 -3.401934 -1.723216
9.700123 -3.397767 -1.723216
17.629292 -3.364434 -1.723216
17.831791 -3.359434 -1.723216
18.019291 -3.394434 -1.723216
18.181789 -3.419434 -1.723216
18.766788 -3.444434 -1.723216
18.796791 -3.409433 -1.723216
30.086788 -3.389434 -1.723216
-9.503211 -3.294435 -1.723216
5.481790 -3.311934 -1.723216
9.714290 -3.301933 -1.723216
16.696789 -3.259434 -1.723216
16.806789 -3.274434 -1.723216
16.886789 -3.274434 -1.723216
16.986790 -3.289433 -1.723216
17.086788 -3.299434 -1.723216
17.196789 -3.319434 -1.723216
17.271790 -3.324433 -1.723216
17.371788 -3.334434 -1.723216
17.476788 -3.344434 -1.723216
17.731789 -3.349434 -1.723216
30.134289 -3.294435 -1.723216
-9.508210 -3.234434 -1.723216
5.491789 -3.211934 -1.723216
9.728456 -3.201099 -1.723216
16.056789 -3.174434 -1.723216
16.146790 -3.184434 -1.723216
16.241791 -3.199433 -1.723216
16.331789 -3.209434 -1.723216
16.421789 -3.224434 -1.723216
16.496788 -3.224434 -1.723216
16.591789 -3.234434 -1.723216
30.156788 -3.189434 -1.723216
-9.468210 -3.149434 -1.723216
5.501789 -3.111934 -1.723216
9.739289 -3.099433 -1.723216
15.111790 -3.059434 -1.723216
15.186790 -3.059434 -1.723216
15.314290 -3.079433 -1.723216
15.446790 -3.104434 -1.723216
15.531790 -3.109434 -1.723216
15.619289 -3.096933 -1.723216
15.706789 -3.084434 -1.723216
15.796789 -3.099434 -1.723216
15.921789 -3.134434 -1.723216
30.136791 -3.109434 -1.723216
5.523456 -3.009434 -1.723216
9.755122 -3.004433 -1.723216
14.206789 -2.954433 -1.723216
14.326789 -2.979434 -1.723216
14.431789 -2.984434 -1.723216
14.496789 -2.984434 -1.723216
14.606790 -2.996934 -1.723216
14.716789 -3.004434 -1.723216
14.821790 -3.011933 -1.723216
14.936790 -3.024434 -1.723216
15.021790 -3.039433 -1.723216
30.141788 -3.039433 -1.723216
5.526789 -2.904433 -1.723216
9.764289 -2.901934 -1.723216
13.519290 -2.864434 -1.723216
13.621789 -2.879434 -1.723216
13.731790 -2.889434 -1.723216
13.846789 -2.914433 -1.723216
13.916789 -2.919434 -1.723216
14.029289 -2.936934 -1.723216
14.136789 -2.949433 -1.723216
30.086788 -2.949433 -1.723216
5.538039 -2.785684 -1.723216
5.649289 -2.794434 -1.723216
9.778457 -2.807768 -1.723216
12.726789 -2.761933 -1.723216
12.821790 -2.774434 -1.723216
12.924289 -2.791934 -1.723216
13.021790 -2.799434 -1.723216
13.119289 -2.814433 -1.723216
13.216789 -2.829433 -1.723216
13.316790 -2.836934 -1.723216
13.416789 -2.849434 -1.723216
30.001789 -2.844434 -1.723216
5.586789 -2.739433 -1.723216
9.736790 -2.679434 -1.723216
11.861790 -2.659433 -1.723216
11.916789 -2.664433 -1.723216
12.004290 -2.674434 -1.723216
12.119289 -2.684434 -1.723216
12.201789 -2.694434 -1.723216
12.299289 -2.711934 -1.723216
12.419290 -2.724434 -1.723216
12.506789 -2.734434 -1.723216
12.601789 -2.746934 -1.723216
29.936790 -2.749434 -1.723216
5.591789 -2.594434 -1.723216
11.111789 -2.556933 -1.723216
11.216789 -2.569434 -1.723216
11.311790 -2.569434 -1.723216
11.531790 -2.619433 -1.723216
11.604289 -2.621934 -1.723216
11.714290 -2.634434 -1.723216
11.801789 -2.644434 -1.723216
29.761791 -2.624434 -1.723216
-21.655708 -2.484433 -1.723216
5.581789 -2.519434 -1.723216
9.581789 -2.469434 -1.723216
10.331789 -2.454433 -1.723216
10.409289 -2.464434 -1.723216
10.506789 -2.476933 -1.723216
10.601789 -2.489433 -1.723216
10.704289 -2.504434 -1.723216
10.806789 -2.516934 -1.723216
10.906789 -2.529433 -1.723216
11.009290 -2.541934 -1.723216
29.706791 -2.501933 -1.723216
-21.658211 -2.399434 -1.723216
-9.368211 -2.404433 -1.723216
5.566789 -2.379434 -1.723216
5.571789 -2.439434 -1.723216
9.591789 -2.391101 -1.723216
9.716789 -2.419434 -1.723216
9.803455 -2.407767 -1.723216
9.916789 -2.402767 -1.723216
10.034289 -2.419434 -1.723216
10.126790 -2.431933 -1.723216
10.216790 -2.436934 -1.723216
10.291789 -2.449433 -1.723216
29.776791 -2.419434 -1.723216
-21.638210 -2.301934 -1.723216
-9.365710 -2.296933 -1.723216
5.566789 -2.306933 -1.723216
29.751789 -2.339434 -1.723216
-21.643211 -2.219434 -1.723216
5.581789 -2.224433 -1.723216
29.606789 -2.154433 -1.723216
29.706791 -2.249434 -1.723216
-21.613209 -2.114434 -1.723216
5.566789 -2.084434 -1.723216
5.609289 -2.095684 -1.723216
5.705122 -2.099434 -1.723216
29.571789 -2.064434 -1.723216
-21.598209 -1.996934 -1.723216
5.706789 -1.999434 -1.723216
6.321789 -1.974434 -1.723216
29.516788 -1.984434 -1.723216
-21.563210 -1.889434 -1.723216
29.521790 -1.914433 -1.723216
-21.568211 -1.809434 -1.723216
5.636789 -1.824433 -1.723216
7.101789 -1.754434 -1.723216
7.346789 -1.769434 -1.723216
29.491791 -1.824433 -1.723216
-21.553211 -1.714434 -1.723216
-8.785710 -1.664433 -1.723216
5.666790 -1.694434 -1.723216
5.746789 -1.654433 -1.723216
5.776789 -1.664433 -1.723216
6.851789 -1.679434 -1.723216
6.923456 -1.661100 -1.723216
7.041790 -1.669434 -1.723216
7.211789 -1.659433 -1.723216
29.411789 -1.706933 -1.723216
-21.538212 -1.649434 -1.723216
-21.523212 -1.584434 -1.723216
-8.868211 -1.581934 -1.723216
-8.823211 -1.619433 -1.723216
5.736789 -1.616934 -1.723216
5.826789 -1.598184 -1.723216
5.889289 -1.574433 -1.723216
6.046789 -1.564434 -1.723216
6.331789 -1.554434 -1.723216
6.421789 -1.591933 -1.723216
6.525123 -1.607767 -1.723216
6.616790 -1.617767 -1.723216
6.710123 -1.636101 -1.723216
6.810122 -1.649434 -1.723216
6.951789 -1.619433 -1.723216
7.098456 -1.622767 -1.723216
7.201789 -1.649434 -1.723216
7.291790 -1.649434 -1.723216
29.341789 -1.574433 -1.723216
-25.093212 -1.509434 -1.723216
-25.013210 -1.544434 -1.723216
-21.505711 -1.499434 -1.723216
5.928456 -1.531100 -1.723216
5.996789 -1.539433 -1.723216
6.124290 -1.471934 -1.723216
6.211789 -1.491100 -1.723216
6.291790 -1.529433 -1.723216
29.311790 -1.499434 -1.723216
-25.453209 -1.364433 -1.723216
-25.363209 -1.399434 -1.723216
-21.493210 -1.404433 -1.723216
-9.244877 -1.379435 -1.723216
-9.208211 -1.429434 -1.723216
6.029289 -1.419434 -1.723216
6.106790 -1.444434 -1.723216
29.301788 -1.399434 -1.723216
-25.788212 -1.274434 -1.723216
-25.663212 -1.294434 -1.723216
-25.543209 -1.329433 -1.723216
-21.473209 -1.314433 -1.723216
-9.203211 -1.269434 -1.723216
29.221790 -1.269434 -1.723216
-26.033211 -1.214434 -1.723216
-25.913212 -1.244433 -1.723216
-21.450710 -1.189433 -1.723216
29.201790 -1.194434 -1.723216
-26.023212 -1.149434 -1.723216
-21.428211 -1.099434 -1.723216
-12.558210 -1.139434 -1.723216
-12.493211 -1.059434 -1.723216
29.121788 -1.104434 -1.723216
-26.690712 -0.979434 -1.723216
-26.483212 -1.014434 -1.723216
-26.173210 -0.994434 -1.723216
-21.408211 -1.009434 -1.723216
-9.128211 -1.024434 -1.723216
29.126789 -1.044434 -1.723216
-26.813210 -0.914433 -1.723216
-21.393211 -0.889434 -1.723216
28.936790 -0.919434 -1.723216
29.006790 -0.869434 -1.723216
-26.783211 -0.801934 -1.723216
-21.373211 -0.804434 -1.723216
29.076790 -0.819434 -1.723216
29.256790 -0.804434 -1.723216
29.366791 -0.764434 -1.723216
-26.758209 -0.699434 -1.723216
-21.355709 -0.709434 -1.723216
29.436790 -0.719434 -1.723216
29.521790 -0.674434 -1.723216
-33.463211 -0.584434 -1.723216
-26.755711 -0.596933 -1.723216
-21.723209 -0.579434 -1.723216
-21.518211 -0.569434 -1.723216
-21.358212 -0.599434 -1.723216
9.239289 -0.591934 -1.723216
29.536789 -0.604434 -1.723216
29.596790 -0.554434 -1.723216
-33.453209 -0.504434 -1.723216
-26.788212 -0.504434 -1.723216
-21.733212 -0.529434 -1.723216
29.656788 -0.499434 -1.723216
29.756790 -0.459434 -1.723216
-33.423210 -0.419434 -1.723216
-28.973209 -0.449434 -1.723216
-28.528210 -0.404434 -1.723216
-26.958210 -0.354434 -1.723216
-26.883209 -0.399434 -1.723216
-26.803211 -0.439434 -1.723216
29.806789 -0.404434 -1.723216
29.881790 -0.354434 -1.723216
-27.143211 -0.264434 -1.723216
-12.313210 -0.304434 -1.723216
29.956791 -0.304434 -1.723216
-27.523212 -0.229434 -1.723216
-27.353210 -0.249434 -1.723216
-12.313210 -0.229434 -1.723216
30.026791 -0.249434 -1.723216
30.076790 -0.194434 -1.723216
-33.383209 -0.089434 -1.723216
-12.223210 -0.124434 -1.723216
30.161789 -0.149434 -1.723216
30.211788 -0.089434 -1.723216
-33.368210 -0.004434 -1.723216
-28.038212 -0.014434 -1.723216
30.301788 -0.004434 -1.723216
-33.353210 0.075566 -1.723216
-28.290710 0.100566 -1.723216
-28.033211 0.055566 -1.723216
30.366791 0.080566 -1.723216
30.436790 0.130566 -1.723216
-33.353210 0.160566 -1.723216
-33.323208 0.245566 -1.723216
-12.178210 0.235566 -1.723216
30.521790 0.218066 -1.723216
-33.323208 0.320566 -1.723216
-28.003212 0.305566 -1.723216
-12.170711 0.293066 -1.723216
30.596790 0.300566 -1.723216
-33.283211 0.410566 -1.723216
-28.268211 0.415566 -1.723216
-27.998211 0.405566 -1.723216
-12.253211 0.415566 -1.723216
-12.184877 0.377233 -1.723216
30.661789 0.360566 -1.723216
30.721790 0.415566 -1.723216
-33.283211 0.490566 -1.723216
-28.223209 0.490566 -1.723216
30.766788 0.475566 -1.723216
